# 3D point list with one line of data per point:
#   POINT3D_ID, X, Y, Z, R, G, B, ERROR, TRACK[] as (IMAGE_ID, POINT2D_IDX)
# Number of points: 326, mean track length: 5.7469942773140126
23826 0.19633696978609988 -0.89197355788302513 4.5454513225758877 196 203 210 0.47009145016367487 72 791 167 749 73 3117
37107 0.50327831508311016 -1.4388232022749259 6.9718560081540044 133 138 147 1.1687330871265149 70 480 78 542 79 524 176 379 178 418 179 372 83 526 85 2662 181 2545 185 223 189 3608 190 3488 191 3835 89 2667 84 457 90 2542 88 355 186 2421 192 3460 194 3919 195 4335 196 4464
10840 -0.42371466829335158 -0.66046975095524529 3.7324507348988103 95 103 114 1.3308000651796281 68 1247 163 1057 164 1046 165 1081
50090 -0.90974057636573213 -0.033550812733247448 1.7624327527438952 94 94 70 0.72404541330539485 96 6131 95 6531 94 6630 92 5009 91 4363
23823 1.184435720377504 -0.98836324867137759 4.7873853364793888 25 30 35 1.9329587873139722 68 711 73 3080 169 2702
37103 -10.743164481866676 6.1095698388668707 20.51633349331501 14 16 22 1.4949185380554941 139 4331 159 4628 151 4670 148 4497 152 4538 137 4803 133 4842 149 4507 171 4076 150 4553 180 4551 182 4246 183 3697 178 4945 134 5016 184 3484 185 3750 106 4398
10836 0.043790474769883347 -0.57586021337274418 3.0114264845011043 244 250 254 0.54684546674499335 163 993 164 1013 69 1153 165 1119
50086 -0.72635886084780144 -0.16750909827358848 1.9074666242011116 16 25 30 0.8043026122271133 96 6464 95 6502 97 5991 93 6069 92 4975 91 4339
37102 0.64088062280117208 -1.5583011603126493 7.2281031529817596 116 118 133 1.2400308988305697 70 358 74 415 80 254 185 2032 72 401 68 415 77 412 78 358 86 2452 190 3437 172 328 171 254 174 329 76 2936 166 365 191 3787 84 260 189 3572 68 414 89 2595 192 3761 194 4246 195 4299 196 4423
10835 -0.21953063920226468 -0.65547918091657031 3.5599648654043103 103 107 118 0.81992113839286296 163 986 164 956 69 1067 165 1019
37101 1.6325581326907626 -1.5084833630489314 7.1001085607930197 106 131 164 2.0223966121817059 156 428 158 455 151 455 180 4501 185 3866 187 4537 188 4185 186 4316 193 4817 192 4598
10834 0.64977394476553796 -0.64984215281957658 3.4050459548741192 143 138 106 0.72864690393614762 163 931 164 916 69 991 165 986
37100 -8.1916590103952345 4.4407509948895179 20.155322589011199 137 144 143 2.1820392697086248 63 2667 68 2498 64 2559 61 3167 41 3125 60 2298 79 2818 81 2622 74 2405 84 2385 85 2238 88 2160 76 2449 75 2279 83 2641 27 2230 25 2160 22 2048 47 2658 32 2197 45 2681 23 2068
10833 0.42312839388790535 -0.5407280978332506 2.5397256204864314 169 185 198 1.2800440740526775 68 823 69 3163
50083 -0.20346901616078733 0.5701331249707462 -0.78555348384000956 165 166 170 1.071097138561381 96 6204 95 6060 94 4853 97 6286
23816 0.085928670109014921 -0.90328821582544427 4.2947400884162912 86 90 101 0.72838304172841362 72 575 73 3027
10832 0.71651207587993748 -0.8553834016100198 4.4609105230943014 113 121 135 1.8736823389447881 161 864 162 841 163 774 164 781 166 783
10831 0.4328441400585486 -0.5505638783982153 2.564949021768304 4 21 45 0.79524429281910614 163 629 164 731 69 3102
37097 0.23954383780103114 -1.6652339938937231 7.6401055613935345 93 104 116 0.75219148575072836 179 4809 83 5184 188 4090 84 4625 186 4133 187 4352
10830 -0.45478723225774387 -0.77443847711032998 3.7333557099648376 89 93 104 2.0516349597334957 67 706 163 689 164 696
37094 -1.891196927960328 3.8194852970865334 19.490780477298706 64 65 63 2.3318122543204294 74 4752 81 5262 177 4775 178 4845 187 4408 41 5468 144 4242 188 4004 86 4253 183 3690 127 4111
10827 0.071762304665480059 -0.88858010406108401 4.2900870899239454 102 110 121 1.4664127891982877 162 567 164 524 69 530 70 553 68 583 71 2951 168 641 72 651 73 693 169 608 74 752 76 912 75 741 172 2702 173 3754
50077 -1.5569793249791057 0.25503542470308388 0.62468839991822189 57 50 39 1.2928204005185957 96 6171 95 6035 93 1002
23810 0.2082472489019406 -1.0099603455782267 4.461464309529469 197 206 213 0.96209364767369154 167 233 73 2884 169 204
37092 -8.8060975056440327 3.8754656197403263 19.990340577718097 89 95 94 1.7277068860066715 143 4073 152 4115 145 4090 146 3910 147 4205 150 4088 151 4414 149 4113 149 4277 141 4044 131 4510 130 4405 176 4410 180 4198 187 4049 188 3740 133 4303 138 4246 136 4389 137 4383 132 5095 128 3985 40 4862 38 3999 125 4160 37 4134 35 4377 123 4017 122 3844 134 4754 144 3929 182 3837 181 4101 184 3112 185 3394 177 4392 118 3606 116 4119 114 3808 113 3889 184 3248 27 3894 25 3605 22 3650 112 3530 109 3724 106 3933 31 4120 120 4115 32 4236 33 4173 29 4086
10825 0.08026025164745812 -0.88947987275361151 4.2702739973804018 132 140 151 1.190150751230002 66 527 67 528 161 531 164 507 160 491 71 3626 70 543 167 2513 169 3227 168 2629 171 3402
10824 0.67819622815076108 -0.76241420088243728 3.5168328003153446 251 250 254 0.59815882242235674 162 513 164 489 166 527
10823 0.67654618441484171 -0.76126696095632351 3.5122233730250318 251 250 254 0.60151618952194463 162 512 163 445 164 488
37089 -10.028498015251516 6.054333143095004 20.213658406959567 12 18 24 1.0338916561551414 174 2781 184 2424 148 2437 171 2153 119 2361 116 2431 112 2817
10822 0.80178397369399412 -1.1098242802572211 5.2696966047199636 67 75 85 1.4490303520111725 150 462 164 482 149 486 151 478 165 2872
50072 -1.5147367464929862 -0.89966111701152174 5.6464744314906579 119 127 129 0.52065551620151529 14 4184 15 3656 95 5951 16 3283
23805 0.064877420104282962 -0.95027353280518834 4.1002097517466778 109 114 124 1.6220028860402562 161 210 168 183 73 2851
37087 2.4573419923936388 5.5036319257776647 20.435467780814797 112 112 114 1.3672780000496305 126 4179 124 4515 123 4448 129 4552 111 3925 142 4527 109 4047 113 4219
10820 -0.0013178129565946251 -1.4542854006444741 6.8210120315242513 105 111 123 3.0693845545882379 64 388 165 406
50070 -1.5403686770274849 -0.097541052693540867 0.50816018908028171 123 118 120 0.6297724033849873 9 398 95 5901 94 4535
23803 0.052118720002647535 -0.96820108377428304 4.1257615975483892 153 159 171 0.34456500230312009 72 138 73 2837
37086 -10.081604720507212 4.2918537092906455 20.297753415797349 85 104 117 1.3925817011843717 132 2342 155 2110 188 1816 176 2430 161 2213 167 1952 147 2115 168 2019 181 2090 187 1813 188 1821 134 2312 121 2116
10819 -0.46082028082581905 -0.82863749773376416 3.684545660535326 2 10 21 2.3416086717479039 68 451 164 405 163 389
37082 0.24047564738711744 -1.6331013015077429 7.6379164121813501 130 138 155 1.6123615298601943 166 3222 175 4432 176 4021 177 3998 183 3285 180 3919 181 3824 184 2999 185 3256 88 3617 186 3707 182 3723 188 3791 178 4103 187 3906 179 4052 90 3672
10815 0.43309741910258726 -0.56596608281407601 2.5496802529251328 175 190 124 0.57348575253262002 68 351 164 357
10810 -0.059000938639019548 -0.79639888926196634 3.541402908375038 69 72 89 1.4067046519169433 68 292 164 255 69 2880 160 248 71 2862
50060 1.3470332704183738 0.13293134535321208 1.3122836257992938 57 50 43 0.22016948598148722 96 4493 95 4888 97 5700
23793 -8.767202333063473 4.3187435124051721 19.033894953280157 59 68 67 1.4625800466118386 65 2541 66 2479 69 2455 73 2475
37076 1.1262088455865082 -1.6650549734626661 7.7825562030910778 70 73 90 1.2426389959274293 40 784 37 358 56 3341 44 447 61 336 34 315 35 319 38 2809 46 3348 58 439 50 2660 53 365 54 3122 47 626 55 625 49 440 45 536 71 3604 72 3500 73 3621 74 2887 69 3709 43 461 66 3760 64 3195 68 2975 63 3219 57 545 59 465 67 2829 72 3499 74 3585 75 3436 65 461 69 2929 73 2952 77 3195 76 2951 78 4124 79 3415 179 2861 173 308 181 158 84 2838 87 2506 81 4007 80 3866 82 3191 85 2601 83 3157 86 2499 88 3264 90 2487 89 2621 30 429 33 310
10809 0.16487839801953413 -1.0020187006228316 4.4055751403727852 132 142 152 1.4109247777513363 66 256 160 250 161 270 164 243 165 2754 71 207 167 204 168 237 169 2518 74 210 75 207 76 2883 172 2494 173 4000 171 2334 78 4530
10808 0.43148739196056124 -0.57258896155221883 2.5462790725502109 5 14 0 0.7532272690513877 68 253 164 225
50058 1.6231205804833593 0.016624533435044119 1.3206420608935716 121 129 131 1.3080552413319517 15 3703 95 4850 94 4731 92 855
23791 -8.3443490815698773 3.7972527041505137 19.233209015167667 119 125 125 1.3410669410832332 64 2424 73 2384 74 3427 80 3679 68 3543
37074 -9.4473470682705507 4.688693777650025 20.037218591626281 102 112 119 1.1825959297854143 130 2395 179 2363 152 2298 125 2192 178 2544 139 3053 184 1695 186 1840 119 2196 151 2342 183 1825 153 2140 187 1947 114 2056 136 2485
10807 0.43148739196056124 -0.57258896155221883 2.5462790725502109 5 14 0 0.7532272690513877 68 252 164 224
37072 -7.6380333943059329 4.1606563801405949 19.915228530141661 47 51 50 1.5778189306539783 127 2907 180 3196 181 3100 187 3048 123 3069 153 2107 110 3480
10805 0.012477138451794942 -0.74630676504263149 3.293621827883161 133 139 151 0.1544561306156324 68 2894 164 202
37071 0.55589190215221562 -1.3826729461685019 7.191188595876894 81 84 93 1.6619381577774799 78 5521 79 5863 80 5152 81 5397 82 5416 83 5337 77 5334 75 4545 72 4406 76 5069 78 5597 85 4529 74 4610 84 4824 89 4463
10804 0.011730693286336328 -0.74732540910265521 3.2966814215784126 133 139 151 0.364914355437784 68 2893 164 201 163 3136
50054 -0.61073474614951573 -0.13355054170281266 1.9159670828781146 136 143 150 0.55448800408623733 96 5550 95 4779 94 791 97 5159 93 788 91 710
23787 -6.1687225715070273 2.9804794011413951 19.530863670254298 89 95 91 0.62932379136874717 73 2299 80 3655 88 3071
10767 0.02247612359230293 -0.7145826825278877 3.3238013709892984 70 74 81 2.3145926920163191 68 5071 159 4736 161 4669 160 4577 67 4816
10766 0.097153985537301632 -0.60754223792452999 3.0402928029833367 64 75 91 0.80979808801329045 64 633 65 781 66 774 68 3790 160 2708 161 2766 163 3252 69 4203
10765 -0.15450904091712125 -0.73900308701741591 3.5535856868137659 123 122 130 0.50085959602633445 67 4828 68 5086
50008 -1.5965269391364147 0.027722202481750523 0.56311530422288858 151 157 157 0.7290633171098484 13 710 96 875 95 835 93 686
23741 0.73109360448772109 -0.70804384568035006 3.8025816069864629 105 117 78 2.0456708776809256 167 4232 72 4688
10750 -0.27444012980884203 -0.71819202293228634 3.6038144374535568 73 76 83 1.7763112394596512 67 4732 68 4972 162 4292 164 4481 69 5130 165 4875 70 5031 166 4421
50000 4.0693157341952526 -1.4580137060399334 5.5331774624112819 127 142 165 0.43921643707562197 99 376 95 412
23733 -0.030090832991487213 -0.77206797693461826 3.7361775270464386 103 106 115 1.2918042435341395 71 694 72 2888
37007 0.18006792393108401 -1.5508568412852857 7.102940698969185 0 0 0 2.420929429936872 177 218 186 2341
10740 0.43623728281929691 -0.5884398495455595 2.5579884633553305 143 161 15 1.4347449992448693 163 4166 68 4787
10731 0.2698550544407029 -0.48120258983999969 2.7320409176949196 184 183 181 1.3737835704702266 68 4743 164 4358 69 5095 165 4889 67 4371
49981 -1.6417489407757959 -0.33876213483373113 1.000406909743524 28 27 33 0.50857971106978861 103 3957 96 6421 15 4215
23714 0.14971943981214475 -0.65933120779792498 3.3156484762568912 145 161 174 1.5295261163824809 71 4947 168 4297 72 4686
10729 0.012034820168740336 -0.56320289696451586 3.0382146280549751 130 139 150 1.971133134814512 66 4711 68 4727 164 4352 69 5003 165 4750
36977 7.9977495142800574 -5.6621182278809039 22.718077308610923 0 0 0 1.0299259678885939 54 3065 85 3264 49 2641
10710 0.22947199603430291 -0.4435337093372505 2.5769777347484442 161 160 155 0.362734587869807 162 3289 163 3814 68 4603
10707 0.014494768455959395 -0.54863337378443322 3.0397038769464579 42 47 51 1.6989615860290959 67 4359 162 3923 68 4585 69 4880
10699 0.42756107965501078 -0.58297775230383386 2.5464316734824686 153 170 20 0.78971543178250903 68 4483 164 4161
36961 0.6568491921419326 -1.5847985105756675 7.2332734991909309 0 0 0 0.38959654617577316 80 4277 188 3785 85 3916 82 4483
10694 0.43371190500298873 -0.44032229401367118 2.6123661739843529 137 136 131 1.9094786483593784 68 4412 69 5027 67 3941
10692 0.32102645460341439 -0.49566578863429983 2.8293379817231052 170 170 170 0.75192041418708488 163 3798 68 4396 164 4094
10690 0.62177533898063664 -0.58896287441561357 3.1449001501813951 136 123 86 1.6174444323294743 163 3780 68 4373 164 4080 69 4877 165 4630 166 4369 70 4900
49940 -2.0822897655738988 -0.50485326525612173 3.1211627393452983 1 2 7 0.69591096048043199 16 652 96 736 97 4060
23673 0.5394449861123839 -0.61714144949293115 3.4505983533764066 149 149 147 1.4903276875391931 71 4044 72 4311 167 3446
10676 0.26511197326129143 -0.44835518900464572 2.5933510428138549 110 110 110 1.2350878296537098 163 3337 68 4193 164 3946
36940 0.44500720570626534 -0.92195186731300405 5.4930625407761342 0 0 0 1.2028943344925258 191 3009 192 2726
10673 0.10155367491344305 -0.57504231786907511 3.002583011223968 85 94 103 1.1793100450144784 65 915 68 4134 69 4485 70 4637
36939 0.44310965366208827 -0.92282895311447766 5.4984120726829149 0 0 0 0.56493014139696185 191 2973 192 2689
10672 0.65532461480679116 -0.65023032315845253 3.418426388771822 126 122 93 0.16598053420405764 67 3581 162 3212 68 4121
10655 -0.205010549335851 -0.63613968784514308 3.5338849354490844 95 95 101 2.0938020542633549 65 3299 159 876 68 3839
10653 0.56568162782774534 -0.67320578870265702 3.707482293757534 180 176 172 1.2173338453765166 66 3192 67 3589 68 3827 69 4208 70 4147
23636 0.14541717193423828 -0.60160051934041592 3.2993565094287782 28 35 43 0.63934155586046149 71 3745 72 3959 73 4363
10651 0.6518111416979947 -0.64823429183082704 3.3864966143139164 60 58 37 0.56288902987635459 67 3021 68 3822 162 945
49901 0.66663099857806496 -1.2373152290989258 6.3606423711467901 103 120 146 1.3395120869223918 195 5265 196 5470
23634 0.14155769814076571 -0.77598594931820553 4.121844225677286 76 81 87 0.63725470291355335 71 3682 72 3898 70 3080 73 4061
36916 0.13225835061075292 -1.739461439531707 7.820160834809073 0 0 0 1.4417201144879703 84 4620 87 4125 85 4334 86 4190 88 4304 89 4267 82 5230 90 4133
10649 0.43517273156763042 -0.56853550673947639 2.5536421881947637 157 172 92 1.2347514497981622 163 2474 68 3686 164 3194
10627 0.43724220784528728 -0.45130464546988086 2.6326676918162137 254 254 248 1.1298955183232333 163 1559 68 3418 164 3715
17052 -0.33000297130609346 0.015127785095419953 0.097161354311315479 0 0 0 1.7922280269482025 135 387 139 3612
10625 0.42787313718269465 -0.46189048996843507 2.7124686385011674 13 11 6 1.4308409555786263 163 1462 68 3392 164 3409 165 4082 69 4290
17049 0.6779129697476447 -0.057519713234141394 -0.055940798674247595 172 197 201 1.5248349773289975 135 2760 42 417
10622 0.10945344919979044 -0.54817238064870533 3.0352074140999505 18 22 33 0.35622546679470179 67 1231 68 3287 69 3903
10621 0.10549191076503031 -0.54963817521379466 3.0557301149869112 18 22 33 1.4811188657460765 68 3286 164 3358 165 4022 70 4420 67 1232 71 4680 167 3965
49871 0.94105227352014265 -1.4456291333002556 7.7397833712883015 155 156 161 1.1691973566991241 172 2682 177 3709 183 3137 189 4152 190 4169 191 4588 192 4240 196 5154 78 3420 79 3577 80 3948 81 4092 169 702 170 690 174 3220 175 4068 179 4091 184 3035 185 3294 182 3550 83 4451 84 4009 87 3550 89 3908 186 3742 187 3951 188 3649 76 842 82 4544 176 3033 85 2803 175 3242 90 3729 182 2538 84 773 180 610 178 711 181 556 183 613 185 510 186 484 187 560 184 523 188 505 190 515 196 648
23604 -0.083591135766457395 -0.65966239916716107 3.665756625820114 2 15 34 0.78916014411278201 71 1270 72 3104
10619 -0.41367888019520199 -0.65663774937468289 3.6833937298743002 69 71 76 0.94898851870046919 67 1148 68 3248 69 3233
49869 0.094765550825542791 -1.6117062569980074 7.5672725494909603 141 165 185 0.66126669109256431 192 4320 194 4870 195 4964 196 5128
23602 0.42179754602859509 -0.70983721123732613 3.8412113076281358 196 196 196 1.2145959308606786 70 985 167 1033 72 3041
10618 0.12677846200014306 -0.58799895814569103 3.1744142136565845 31 38 48 0.10659068818348053 67 1091 68 3236
49868 0.10184907909503339 -1.7273547222099666 7.5292732263533146 123 152 166 1.4048284672521336 192 4302 193 4556 195 4943 196 5114 194 4853
23601 0.091457833236475994 -0.72673926321563043 3.9084946360381281 57 62 65 0.21819185214449743 71 1035 72 3024
10614 1.5420413313294705 -0.85740745834230747 4.0998187393705745 54 67 83 1.7515062548814204 59 714 66 3128 67 852 68 3127
49864 1.1472746387503394 -1.2409329905341493 6.2718083776825004 65 83 97 1.4871691549067616 196 5048 86 710 85 633 189 3691 180 577
23597 0.063074068461977079 -0.8015773609210044 4.2230901842564492 52 57 64 1.4825071533864378 71 3061 167 2633 72 2949 73 4056 74 3099 76 4522
43299 2.0293024448693311 5.335352432976185 20.959170950160981 0 0 0 2.3960326167830379 118 3878 122 4124 123 4340 125 4403 142 4381 107 4367 108 3816 171 3993
17032 -8.8821096635104482 4.1224456598549981 19.966410977393558 31 40 47 0.97359865006712232 63 2587 64 2447 44 2423 88 2091
10605 0.43548658997069895 -0.56595869504535889 2.5515026967191865 10 20 0 1.4765424622291958 163 2494 68 2936 164 3209 69 3708
23588 0.0089438941157409784 -0.83359407245809691 3.8369157189486791 150 143 156 1.1085904356619491 66 2966 168 2556 72 2757 160 389 159 398 65 390
17031 -10.513389493627885 4.3482361491262216 20.189224631684539 28 35 43 1.1784376939782621 68 2449 44 2414 20 1828
23587 0.10805526801795681 -0.92744989955953938 4.3122084286068336 79 88 97 0.73679685486932478 71 414 166 2550 167 404 72 2749
36862 -9.0210077558853268 6.3088136025729762 19.868531839435821 5 11 13 1.7950066198036467 147 2391 164 3114 165 2625 168 3065 50 2457 155 2308 72 3380 75 3364 76 2762 66 2785 59 3446 63 3932 68 2783 148 3250 130 2612 127 2958 71 2694 68 2774 149 2419 71 3482 170 2415 174 2897 79 3236 80 2950 34 3469 177 2580 82 3047 180 2506 84 2679 85 2471 85 2472 90 2345 186 2270 186 2271 119 2454 119 2455 87 2370 179 2710 179 3572 184 1893 86 2355 89 2520 118 2200 115 2376 28 2584 163 2349 26 2347 27 2447 25 2320 112 2217 24 2248 108 2160 105 2902 14 2768 35 2735 101 3714 100 2500 9 2815 98 2515 154 2491 154 2492 117 2370 120 2419
10595 -0.0095542703889118456 -0.93446286490587605 3.8080834539707085 102 106 118 0.62322150704570434 162 55 163 2382 68 2835 164 16 69 2767
43268 -0.16839422396224352 -0.48835981695916181 3.7177459000285031 158 159 163 1.615164323971044 108 3649 107 3871 105 4198 103 2784 102 649 101 670
17001 0.55370116770218947 0.024062585610198476 -0.51604661413807129 7 16 25 0.68025166837913265 45 319 134 253 44 273 132 282
10574 0.53082439454262309 -0.42324436589008696 2.5708312137268661 25 25 25 0.65419564805633512 163 2906 68 2079
10571 0.30834451143024261 -0.47307633483635103 2.7206336149691115 189 189 189 0.89229779914838681 163 1385 68 1709 69 3961
10569 0.46103460240605332 -0.50409366914748643 2.9022006085111247 120 118 106 1.0235161635612515 68 1554 164 1369 67 1389
10566 0.11880440318156958 -0.57006151550006867 3.1032400479941824 236 240 242 0.33724373114244549 67 1143 68 1270 69 1232
49816 -0.56394114306108378 -1.5999839302889087 8.0055154905518755 248 249 249 0.58449753528157289 194 3984 196 4520
23549 0.15871718311204408 -0.97583068921674243 4.6704538284547512 108 110 122 0.085292037053040531 70 488 72 558
10565 -0.41607077205135107 -0.65484314390078402 3.7084796828087905 50 51 55 2.2222106733771332 162 1092 68 1266 69 1169 165 1098 66 1134
10564 0.43457811536201496 -0.5181290111240352 2.5730634391054967 118 118 116 0.73027165474973821 163 1049 68 1257 164 1212
49814 1.8482513059238683 -1.4692262716073894 7.1366134624318791 133 155 179 1.7981232533822509 181 2587 195 4631 196 4506
23547 0.30967832477195434 -1.5257313983536855 7.5034923304985561 90 94 105 1.2702587249659436 67 544 158 499 159 546 72 553 78 582 81 547
10563 0.43871758696201135 -0.51859922565588368 2.5798459575078456 43 43 41 0.6506612214016394 163 1058 68 1254 164 1215 69 1371
10562 -0.42373599071826501 -0.68769550547233715 3.7164599576831301 95 96 100 1.5497907072204191 67 1043 162 996 68 1150 165 1007
49812 0.21425551934935932 -1.5057513451054576 7.4317815251792654 100 99 107 0.082370817929887957 193 3680 196 4491
23545 -0.046502303618907649 -0.80614569429886218 3.6104133078069305 33 32 37 1.2920522630996556 71 318 72 413 73 2972 168 415
10561 0.094053635414264064 -0.5790130109590621 2.9882609773080255 69 83 97 0.67093858067377854 67 978 68 1127 69 1080
49811 0.21425551934935932 -1.5057513451054576 7.4317815251792654 100 99 107 0.082370817929887957 193 3679 196 4490
23544 0.035296211327658103 -0.84042208124132001 3.7820445913533396 117 124 132 1.4718246327815023 71 297 166 275 72 349
10560 -0.43965912075108987 -0.69132160796698405 3.6576936339896244 62 70 87 0.57910585171501427 67 1006 68 1124 162 2725
49810 1.6348800956678096 -1.783590235605425 8.9493080662043898 122 122 133 0.34824502200442387 175 3174 176 2977 180 2679 181 2573 185 2737 196 4475 174 3151
23543 6.9503554493415702 -5.0502019019749236 21.886374450832079 243 253 255 0.44910088964601447 53 339 72 348
10559 -0.14000940152219843 -0.67619280143402416 3.5355185331838723 91 89 94 1.4092174061618321 67 926 68 1047 165 914
10555 -0.28097599639063253 -0.71789974341636564 3.6033240153017112 34 37 44 1.9435194400228049 67 822 163 769 68 902 69 856 70 901 166 2721
10548 -0.43445243497806041 -0.78657939744907834 3.6557031113830831 65 65 73 2.770155165447088 65 496 68 679
49798 -0.10569017684611441 -1.5546185455535053 8.0945144231299384 82 80 94 1.6508324516811557 190 2972 195 4386 194 518
23531 -0.027340770472185822 -0.88304507733385551 3.7191071674140939 40 33 46 1.2850002774582925 71 65 72 90 167 68 169 2471
43237 0.099009524557799294 -1.0118292499038597 5.4522820829858762 79 89 99 0.99879976715406771 110 3776 107 3301 105 3776 106 3284 19 3416 15 2907 14 2991 103 2677 102 2914 13 3092 101 3123 100 495 99 525 11 549 12 3036 98 445
16970 -0.070381410017008122 0.44073221011167252 -1.3067840112179219 71 72 76 0.85904859075228879 135 4198 134 4513 45 4675 44 4598 133 4009 132 4217 43 4817 131 3850 130 3111 129 2888 42 4275 41 3974 128 2894 40 3676 39 1378 127 953 126 827 38 1014
10543 0.16651628694005322 -0.31096297721491861 1.4876473772087861 0 0 0 1.4814232070898199 60 466 153 414
43234 2.0230868706785898 -1.9438161607604607 8.6408120305713112 202 209 217 1.3172450145009207 26 3427 108 2891 111 3198 114 3303 115 3542 107 3271 116 3833 105 3746 106 3256 104 3090 19 3373 103 2626 102 2855 112 3243 101 3073
16967 0.27573263515083557 0.33063998141316547 -0.75468112832011469 19 28 9 1.2367468911780857 46 4366 45 3401 134 3228 48 3372 135 3022 44 3294 133 1078 43 4349 135 3967
3683 0.096058483605169387 -0.29418822097959663 1.9186223697935725 203 201 202 2.5863531498305519 151 4510 152 4497 153 4373 154 4530 155 4412
10540 -0.24432333654406083 -0.78021469739886562 3.5421038310359227 72 73 83 2.7411476184341117 65 360 68 475
23523 2.8661671010802512 -1.8934658170948222 8.6721493536616912 157 168 184 1.6859775782802715 147 3919 168 3661
29934 -5.5667290847896798 3.0112407517422999 19.772078625866488 108 110 109 1.4352934001509525 148 4087 180 4050 187 4205 173 4351 117 3948
43189 -0.63199919717888353 -0.23074411200783701 2.4019742288155954 107 117 129 1.2397451400510016 108 996 107 969
16922 -11.093038573312501 4.3958155627978321 21.111844776517358 92 110 131 1.7092845993438341 149 4398 134 5013 109 3893
10495 0.02906368449229783 -0.78385251566393499 3.7589755255197024 160 161 168 0.89112428891686868 161 564 67 560 66 543 160 518 68 632
23478 0.3859041471487345 -0.65055003313237336 3.5885653545601253 179 179 177 1.2423409109761963 167 4045 168 4170 166 4178
43187 -0.4369015201864877 -0.30221904383561765 2.9623544654056255 129 133 144 0.34748048554840966 108 939 107 956 106 791
16920 -9.7884178814447953 -0.15542306518048085 20.990501196407688 75 88 94 1.1360732381838938 135 4607 136 4747 138 4611 134 4983 187 4397 188 4060 121 4305
3636 -0.32884668395215644 -0.4680212328571739 1.7839541371848566 55 67 89 1.0517796988404922 151 4300 152 4154 58 4635
29903 3.5978149118996501 -1.7470039061438869 8.6135700868970932 178 203 223 1.1489689218549886 170 3229 177 3701 180 3415 172 3584
10493 -0.34367807631639702 -0.75354363504238686 3.6241558796661937 136 138 148 2.7437936009247106 157 471 159 544 65 594 155 426 158 2835 160 2678 163 2609 165 709 69 736 164 690 166 773 67 2916
23476 0.11762411667274808 -0.90826403742028738 4.2735391033474599 125 133 144 1.1772415104969149 71 4822 167 4090 72 4559 73 4777
10492 0.043292751552537603 -0.84051329791060558 3.775452622479011 161 168 179 0.60202752536356108 65 312 158 304 160 299 66 306 67 351 161 321 162 346
10490 -0.3855004609239322 -0.75604710284709487 3.6188606517186468 108 111 120 2.0394221514655939 161 632 67 687 160 561 162 688 68 764 163 2608 69 3060 70 3053 166 2685
43183 -0.65034719544703989 -0.28056492820103479 2.442581931385801 94 108 127 1.9490273521689474 108 2504 107 889
16916 0.7546167218461598 -0.2939855092495075 0.71943195207171773 197 215 225 1.9301450730165399 136 4794 134 4934 133 4514 132 4954
29899 0.70278447605250971 -1.0039878466231049 4.6092810118744936 245 255 255 1.7163672467460058 175 288 180 3355
10489 0.087438212622474198 -0.42041773750451761 2.5429661984825502 80 79 78 0.90207926930748461 155 4428 156 4409 154 4569 157 4952 158 5108
16899 -0.18376814663485724 0.54675310031982949 -1.7418203727427992 171 167 158 0.80110757170412483 135 4519 134 4725 133 4252
29882 0.30951028261422564 -0.9526936366287253 4.9379880869871799 45 47 34 0.12583206782122774 179 1111 180 2957
10472 0.58073851412450694 -0.45636194829861937 2.7230094148357145 70 72 58 1.2100106025563964 66 4879 162 4254 161 4328 67 4695
10467 0.41210725813964777 -0.45340037531839394 2.6698631314496546 154 156 145 1.5852813155930807 66 4876 68 4987 69 5184 67 4611
10466 0.17357036731917125 -0.58700851502153295 3.2239132031636952 112 121 128 1.8366989831790994 66 4992 68 4927 69 5138 67 4598
23449 0.13000036834344664 -0.63436958076385397 3.2123876363603916 84 105 129 1.0539690842403693 167 3439 168 3882
10465 0.15362854806795276 -0.65879106635065499 3.308029977069749 188 197 211 0.47729403488894079 163 4287 67 4586 164 4483
10464 0.15323541013391101 -0.65935638583531631 3.3112067068322872 188 197 211 1.360992363540672 66 4843 163 4288 67 4585 68 4910 69 5129 165 4874
49714 2.7093625005516384 -1.847972759344684 8.3152420270116885 63 58 90 2.0741993222367952 90 305 196 263
23447 -0.041973840380865809 -0.76522121929342268 3.6970406698034912 58 62 73 1.3615293819255516 168 3861 169 4012 167 3612
10455 0.45743407741895764 -0.69645429763101063 3.8064166912332538 191 192 194 0.5079015412126906 63 4501 65 4569 66 4705 67 4477 68 4719 69 4996 70 4969 71 4888 72 4660
43141 -1.6187174782646314 -1.1283360403019842 4.1939563663074022 122 111 120 1.6806089056061848 108 196 107 254 19 191
16874 0.22499791478116177 0.4583217987019772 -1.3187403670045994 56 66 38 1.5990658098202062 135 3997 134 4320 133 3647
16873 0.22499791478116177 0.4583217987019772 -1.3187403670045994 56 66 38 1.5990658098202062 135 3996 134 4319 133 3648
29856 0.81385025248783649 -0.90012531358630232 4.7170329388998216 26 28 15 1.5803075993815923 83 1682 180 1529
10446 0.012266322588834937 -0.88238936607875396 3.9170048960110377 165 168 176 1.0547128380988648 163 3924 67 4293 68 4672 164 4187 69 4637 165 4699 70 4740 166 4338
23429 0.20452632306722313 -0.66593916671149955 3.7358641453394075 165 166 166 1.407203826588193 165 4003 168 3725
10439 0.23920602718346973 -0.3614455174321628 2.219210781024433 132 134 133 2.1324536706314619 161 3050 67 4233 66 1981
10434 0.59903805981360925 -0.45925007458958234 2.7263238913328731 78 87 66 1.018326503868203 68 4748 163 4126 67 4185
43123 -9.7595237402535187 4.2738890692777405 20.119308553141607 33 46 46 1.6855228952222407 166 3025 164 3019 161 3175 149 3139 153 2087 165 3346 160 2135 159 3139 154 3178 167 2872 185 2521 185 2529 149 3573 143 2194 145 2200 148 3180 137 3391 138 3284 132 2347 131 3570 125 2087 125 3510 126 1978 151 3285 130 3443 123 3058 169 3053 170 3047 174 2496 176 3478 173 3499 186 2824 186 3283 187 3037 119 3081 118 2811 116 3104 115 2107 115 3014 113 2925 112 1970 111 2734 136 2348 147 2122 108 2731 169 2130 171 2907 172 3056 175 2478 177 3475 176 3475 173 2390 180 2192 118 1966 107 3063 106 3495 117 2974 121 2128 120 3021
16856 0.74609013672869295 -0.20341922731911921 0.7186652106355832 60 68 71 0.43099118114021873 46 4163 134 3750 44 3038 133 2738
10429 0.44349256461144926 -0.54659079643044317 2.5774237336999439 23 33 40 0.46271831989221368 161 3714 162 3723 67 4111 160 3642
43110 -9.8854919691560248 4.1276213931939125 20.18565451584486 45 58 58 1.9742185935802583 163 2046 171 2904 172 2065 158 2195 165 2129 159 2120 164 2024 155 2098 154 2185 173 2374 176 2404 150 2199 125 2058 178 2459 181 3083 113 2094 136 2326 151 2262 107 2030
16843 -0.27906613864231472 0.40763816802992869 -1.1503411928229073 212 211 209 0.41791243164488612 135 3637 136 4327 134 3247
3559 0.67742386405591037 -0.31531456771580485 1.8474249624335062 185 190 194 1.2544685187044464 151 959 152 3449 59 4133
10416 -1.0497289853411513 -1.1669025382671578 5.0001146224857802 121 130 147 1.7345357261999421 66 4155 160 3595 161 3665 67 3821
10412 0.28832406394774268 -0.44354664105023595 2.5886798481956665 182 182 182 1.1267120148990051 163 3816 67 3684 68 4411
49662 1.6463184823310613 -1.4412377539598984 7.8573425570964002 38 48 58 0.99484017936340552 193 3137 195 671 196 3512 192 577
23395 0.088871861413326148 -0.86475612950667102 4.3525681457484255 113 121 132 0.82319501922391725 69 670 168 3233 70 689 73 3704 75 3841 77 4710
10411 0.56617129464186677 -0.48893009537577981 2.8501728513252602 65 67 43 0.53849513625441281 163 3593 67 3659
49661 1.5495979963361344 -1.4452894335155195 7.6977143238247177 123 147 157 0.64941436214110171 193 489 194 502 195 601
23394 0.15590279417795716 -0.88833319322061055 4.3989728177979073 97 107 118 0.48404857264615653 71 3642 166 3277 168 3216 72 3558
43104 -9.9680461489485204 2.9239733238441947 20.241857855636724 55 60 65 1.2755542788504082 119 3468 137 4368 122 3832 123 3809 129 4006 128 3975 175 4792 180 4048 111 3474 106 3758 100 4072 121 3936 117 3618
16837 2.0845022453945883 -1.5405935656087659 6.9296410078123927 246 250 253 1.0457260543350224 145 367 134 3015 150 431 151 413 152 382
36677 -11.258060747714007 5.5869683199275961 20.616586761900681 34 48 76 0.67562654196988359 129 2354 119 2272 118 2067
10410 -0.21837044993249674 -0.6440741744835663 3.5235963836325652 108 109 113 1.7505707392624521 65 3288 67 3597 68 3838
49660 1.8229689944610965 -1.5406152863154172 8.4096304313872547 123 147 157 1.4957972468520193 194 501 195 600 196 683 191 501 190 532 189 525 188 538 190 542
23393 1.2760162623361162 -1.6105475899286612 7.9745574534601849 77 78 91 1.0156970184826792 145 477 146 500 147 2618 149 2643 151 2763 162 2629 165 3616 168 3182 144 2626 153 2532 53 471 74 3613 171 3088 75 3462 193 4278 185 3268
43103 -8.5966122535616183 4.5403690690002163 19.90232203447782 89 98 97 1.349900998047304 133 4318 136 4405 150 4094 132 4912 37 4152 182 3842 184 3119 22 3662 23 3581 21 3516 143 4088 152 4123 151 4267 148 4102 60 4342 58 4601 59 4508 61 4196 64 4947 141 3905 63 4895 146 3706 46 5005 44 4697 66 4322 43 4937 147 4064 68 4237 70 4697 41 5184 125 4003 130 4207 131 4305 67 4221 71 4126 73 4168 169 3616 74 4371 171 3680 175 4823 78 4783 80 4672 81 4849 178 4457 178 4458 82 4894 84 4311 86 3718 181 3963 90 3616 138 4030 185 3400 85 4211 186 3853 187 4061 119 3900 118 3616 116 3785 115 3874 114 3636 114 3637 173 4374 113 3575 28 4128 26 3606 27 3906 25 3453 112 3541 24 3690 107 3965 20 3582 134 4400 36 4285 47 5146 117 3807 29 4101
16836 -0.70677522341278254 -0.0026880849835868338 0.0051385875740410977 84 100 115 1.7736635381787564 46 4160 136 3623 134 3001 44 397 133 368
10409 1.6498822968090054 -1.5204770539988945 7.2861149338764388 111 117 132 0.64512164318081955 60 3455 61 3363 67 3523 55 3436
23392 0.45621055738863198 -1.4801167760840865 7.0377126058416746 146 162 184 1.4655367817630407 65 3120 66 2992 67 477 68 2985 69 3715 70 2913 71 3610 159 2671 160 2637 163 2538 167 2460 168 3157 157 2876 162 503 155 2510 166 407 72 3510 73 3631 169 2592 170 402 170 3195 74 3595 171 333 171 3065 76 519 76 3790 172 387 77 488 173 3681 174 3867 78 4134 175 3978 79 4815 176 3637 80 341 81 3094 178 4107 82 3212 82 4504 85 3683 88 3867 87 3711 88 2618 183 3291 175 345 185 3262 186 3711 185 2704 189 4112 186 3031
16821 -10.58809646353518 4.3673299482618217 20.504015007510944 106 130 152 1.3607603249186102 150 2210 134 2306 161 2203 171 1949 182 1989 104 1971
10392 0.41039564349917718 -0.42595210847599158 2.5645809990444954 174 174 172 0.73207202742536104 163 3349 68 3943 67 3194
10391 0.44024809500797046 -0.43719972438715055 2.6116570132689785 97 97 97 0.3460869823577799 66 1562 67 3183
16817 -0.21394366472374435 0.60639470211820679 -2.0018239582208102 13 13 8 1.1640187326137108 134 2157 44 2034 133 1854
29800 -7.4252472437687098 5.1611387839190721 19.839071937455465 66 69 66 1.9793173367141885 75 2414 81 2798 170 3089 83 2808 182 3016 85 2364 60 3294 105 2719 9 3696 64 2777
10390 0.25346702582006231 -0.4437765248201786 2.570414356470974 198 198 198 1.1475605030953751 162 2859 163 3340 68 4198 164 4123 67 3178
16816 -9.7732783738971243 2.796647613067099 19.704878471698855 116 122 122 1.7769497094054978 59 2117 37 1993 134 2138
10389 0.10813937330660094 -0.55864124918094638 3.0523171599741885 34 40 52 1.1015672695000518 163 3294 67 3084 68 3852 164 3671 69 4240 165 4260 166 4030
16814 -0.33611125141390458 0.57109871231939502 -1.8870997214796057 9 9 9 1.033358987109362 45 2390 135 3759 134 1905
29797 3.3874643526938053 -1.3583057977479787 8.0753586471549781 228 239 235 1.1989437804340557 81 3363 82 3460 177 3031 178 3162 179 3761 83 4088 176 1029 180 3484 181 3395 84 3728
10387 -0.2048112368998796 -0.63812161140642898 3.5210763008664765 38 41 47 1.7763689753581693 65 1019 67 3062 68 3238
36653 -0.095187656297813936 -3.7822889917558444 21.164021864744633 93 107 116 1.2708280328233861 119 554 118 2451 116 687 133 2874
10386 -0.35351030278676498 -0.67472297934993897 3.6557475207169183 41 49 54 2.3864912524308259 67 3035 164 2745 70 3156
10384 0.098261456071703848 -0.58091563597402618 2.9943001293692246 224 233 242 1.0303687724161752 66 920 67 3019 68 3196 69 3857 70 4161
49634 0.54077992041105027 -0.98496292143781738 5.3565594680435282 0 0 0 0.21818629063044942 190 4426 192 4524
23367 0.14365306864528787 -0.62126359182939705 3.2405762929363817 11 23 42 0.65007150065165697 165 966 168 2847 72 1518
16806 0.49316349048409369 0.29550735512420317 -0.59038406197606585 20 27 33 1.3363162011325727 46 1411 135 1018 134 1092
29789 0.56446697864390527 -0.95450298646012599 4.9142320067367455 112 119 127 2.0809208967627399 82 5513 83 5454 81 5454
10379 0.44171663726116717 -0.54669190821136826 2.5713581823104943 40 51 57 1.2158773813918606 66 641 68 3771 67 2914
23362 0.92825945335023186 -0.96793962553790946 5.1788597147523472 133 141 120 1.5325828606495819 164 2689 165 3000 166 2694 162 3194 163 3248 65 3941 63 3332 169 3268 168 2717 170 2730
16805 -0.43770781133376907 0.35167776728426131 -0.90433008223420264 209 208 206 0.43225899795316614 135 987 134 1046 133 1016
10378 0.12365562695292924 -0.65537817699431888 3.1354228990907953 249 252 255 0.013276691513162679 66 570 67 2886
10377 -0.44469177570697133 -0.80210699090924786 3.7140667972643748 103 100 109 2.6691398128330461 66 491 67 2868 164 2630
23360 0.16388517576074602 -0.86147811092043303 4.4239036148552557 117 121 132 0.96396726472131178 69 729 168 2691 74 974
16800 -2.4321423452361768 -1.2207015397186083 6.859065262774215 96 109 125 1.8539153753287747 154 2809 134 695
10373 -0.32936293582063714 -0.83601296637020284 3.5960866116634778 0 0 0 0.23436928718751476 161 2614 67 2765
49623 0.95541733952053221 -1.0630665645937059 6.125494349463291 61 74 91 0.21017695730021049 193 4530 195 5118
23356 0.17658436313976 -0.91330244502312719 4.5887577983717502 159 171 188 1.7994707727773569 168 2665 73 3697 75 4080 171 3419 76 4501 172 3760 77 4944 173 4292 174 4750 78 5143 79 5602 175 5086 80 5034 176 4677 177 4752 81 5232 178 4825 82 5286
43058 0.44057581406684626 -1.1492972873814917 5.5594306920846384 0 0 0 0.40092518897471557 191 4609 193 4507
16791 0.62379768082413189 -0.098691787861937705 0.21518719173417633 233 248 252 0.54452925115272977 46 521 134 327
10364 -0.058291433502175201 -0.88341313814506628 3.5866261997005608 162 174 196 1.1234076524014462 163 13 67 2675 68 17
23347 -0.026741714679953354 -0.84427417660802051 3.9096583461543606 64 72 83 0.13015788350257462 167 3064 168 2566
43054 0.50936283764693591 -1.0116571777435386 5.3960234030455076 0 0 0 0.55099237536147694 191 4376 193 3933
10360 0.61599855791462144 -0.51538618463844144 2.9654145697061947 142 145 125 0.77397136118788923 162 1274 67 1378 68 3881
49610 -0.18922849794105653 -1.7252672545082937 8.1136222495608354 254 254 254 2.0665193512926892 190 4342 191 4685 195 4971
23343 0.13525081245227044 -0.9534514856130335 4.2009508251280394 146 155 172 0.35499116504064726 70 211 168 2452 72 2667
43053 0.47180787973219412 -0.98742895141783815 5.391630973949864 0 0 0 0.90776722687300082 191 4093 193 3486
16786 -8.1725167415910693 -6.5625759569348814 24.102580915410034 72 84 98 2.4103468478522241 148 3272 139 3544 114 2921 146 2514 115 192 70 3582
29769 -2.4321256592239093 1.0374845226301135 21.333625631079371 182 175 149 1.4008758888922266 55 5466 83 5303 160 4443
10359 -0.85429933217134213 -0.68176337121775687 4.1551128188204256 112 117 120 2.5361729119251124 65 1191 67 1296
43052 0.48818507803944627 -1.1481725020213467 5.550367241733289 0 0 0 0.66947996508142937 191 3930 193 3774
43051 0.53684763159420834 -1.1376237557015969 5.4447920658342914 0 0 0 0.14621803539695566 191 3889 193 3723
16784 -0.65989622708652906 -0.36854047491283914 1.0708456584395791 126 139 155 1.3155294969338969 136 2757 134 98 133 120 45 84 43 168 42 258
29767 0.70674211204833626 -0.87103629830432905 4.5928006255803533 153 153 143 0.85363816188267005 81 5233 83 5298
10357 0.11264470375149825 -0.54442853919269718 3.0197157774472365 193 199 211 1.0416971605467735 66 1182 162 1172 67 1238 160 1004
23340 0.14657034944566158 -0.97471797991465059 4.2672156247653819 190 199 216 0.3828088152787435 70 203 168 2444 72 2662 73 3573
43048 0.48885452685379416 -1.1453055027825194 5.4493637057234299 0 0 0 0.037053020247466179 191 3187 193 3076
16781 -1.1666093592572346 -1.2522436164834883 8.0640373572338611 0 0 0 1.3776818745108663 136 5005 155 4493
10354 -0.42259060848311086 -0.65533775606738021 3.7396658387358328 92 95 100 1.9919266901798405 163 1079 67 1169 68 1276 164 1072
49604 0.49457817776623059 -1.0151139782876748 5.364107278271276 0 0 0 1.5853853951706149 190 4221 192 4289
23337 -0.023996567743486352 -0.8797876642209056 3.710226257936732 46 34 44 2.1217395777922765 165 67 166 69 73 2830 168 2396
43044 0.48997046621865631 -1.1443533499504313 5.4500986886924787 0 0 0 0.043173155052112624 191 418 193 426
16777 -0.74124209208882208 -4.0857772116053983 16.121247584746527 208 208 218 1.2274391407347276 155 4351 135 4651
10350 0.11176478339146902 -0.56469345789882042 3.0357173559717201 164 170 182 0.61244818312804128 66 1078 67 1121 68 3254 69 4235
10347 -0.2015081235337261 -0.65443827366732832 3.541957526813579 38 38 46 1.4189171798459383 65 969 67 1049 68 1155
10346 -0.4391228747909755 -0.69196803198699497 3.6865005266782633 27 32 38 1.9694681324301673 160 845 67 1031 65 939
16764 -0.52469871396541146 -0.2543781017343944 0.98721336693019046 118 127 144 0.14176410002284939 138 2754 135 202
10337 -0.39897186634057485 -0.7797019788676246 3.6541625381710907 115 115 117 2.8533783993517137 160 479 67 586 164 612 163 587
16761 -0.13935770813278311 0.50669179127217057 -1.5864209700334446 176 177 168 1.9618619198203462 46 4745 45 1833 135 3695 137 4796 136 4545 134 1451
10324 -0.001999789893879752 -0.91192042911238413 3.8497376099888094 117 123 139 1.2499303532767263 163 115 67 152 164 103
23307 0.044451840663147446 -0.86654038005634892 4.1392069373769775 78 85 100 0.3652213663880754 71 551 168 625 72 625
43010 0.64535487785848611 -1.0799785183340276 5.1231825568890814 0 0 0 0.26619337281896971 189 4141 193 4307
16743 -0.29936387946623549 0.1384552193541948 0.12887502761781444 227 226 222 1.1104263482748546 136 4903 137 4929 135 4752 134 5110 133 4858 131 4986 132 5365 133 4793 130 4780 129 4370
36583 0.73707848064626191 -1.5788469158916705 7.3967637183022346 141 145 158 1.7581890242065956 83 3164 64 416 74 455 159 468 163 423 178 2876 63 412 79 3418 156 394 171 292 158 418 86 2488 85 238 177 2717 181 2495 87 212 178 276 88 3258 184 2490 183 2114 82 359 82 368 84 304 186 3014 190 3449 191 3800 185 2047 193 4011 77 444 182 167 187 3226 189 3588 188 3038 90 2477 188 3036 192 3767 89 192
10316 0.44237311228404691 -0.46003003063340564 2.7064916391529157 156 153 151 1.9393916111708998 61 4485 156 4266 155 4298 59 4624 60 4604 58 4701 57 4718 57 4889 154 4340 59 4769 55 4943 56 5062 153 4176 63 5272 62 5187 63 5349 157 4756 151 4359 152 4364 54 4467 158 4899 159 4600 149 4202 150 4169 147 4135 148 4184 150 4323 146 3828 145 4001 146 3986 144 3827 53 3988 52 3977 51 3929 50 3728 48 3859 48 4315 160 4482
16742 0.22359967725168461 -0.63942490768901417 3.2367255322072142 83 91 102 2.0709023266628743 136 4864 153 4357 135 4743 154 4513
36582 0.74405216963192888 -1.570411901484746 7.3180601686675812 119 124 139 1.7869866599024522 78 366 85 2587 184 2483 193 4000 77 421 178 259 185 2037 70 371 76 447 79 341 67 450 77 3189 190 2786 191 4149 72 418 180 2600 79 340 182 2348 189 3578 76 2948 176 240 188 2399 90 3076 187 2472 86 2472 195 4302 196 4427
10315 0.11319922761815365 -0.19540429855114519 1.4543964469758761 253 253 253 2.009788595135265 153 2802 154 4069 61 4383 62 5291
49565 1.7145321771137734 -1.4423732914562213 7.8302332427963615 88 90 102 1.0285031113134873 193 4331 194 4575 195 4681
23298 0.08355000452329471 -0.90271024942775036 4.1631760815497314 172 188 200 0.5823503620100825 167 376 168 440
10313 -0.28767981671060316 -0.55140033002548905 2.151838926328729 134 142 163 1.9834597277090562 63 4936 62 4561 59 71 151 141 60 3347
49563 1.2659787205260187 -1.3064259369146494 6.5965912942899401 0 0 0 0.891858139412536 87 2671 182 517 183 2266 184 2081
23296 0.3687077995213372 -0.82341040854752601 3.708338450661341 111 116 138 0.0047463957106701352 165 274 168 315
10311 -0.28863704753386504 -0.54412903947747027 2.1385728471510403 82 88 112 1.8399882454820968 147 160 150 2603 151 2645 152 3285 153 3058 154 3274 60 3352 61 3677 58 2754 57 2891 62 4569 156 3755 63 4941
49561 1.1459195764759142 -1.2623343380011169 6.2721909128686955 39 55 68 1.798907442538749 84 654 85 565 86 630 196 5017 181 447
23294 0.39677310268840765 -1.0664351693510008 4.7487205170225284 157 170 190 2.0023708569072269 155 269 168 288
10310 -0.29209104270082187 -0.53282372336058881 2.1230061410608241 50 57 71 2.0213575709040428 153 4268 60 4662 61 4628 62 5303 156 4315 63 5386
49560 1.168710771799981 -1.2661745144117666 6.3059404562008563 39 55 68 0.050786719365114814 190 3825 196 5016
23293 0.08734139241706057 -0.93646824781909943 4.1748343653919848 192 205 221 0.7354058993198751 167 252 168 285
16732 -0.38629050346974869 0.52573251826316569 -1.6897131601580584 236 236 234 0.51772758548402098 45 5086 135 4682 134 4871
10305 -0.41583933891998975 -0.26144316802339229 1.5693685674291196 58 69 82 1.5007323910808803 150 4436 151 4632 149 4354 58 4960 57 5051 56 5189 140 3586 143 3737 144 3824 146 3983 148 4351 139 3265 138 2864 136 555 135 448 44 569 45 3192 132 595 43 579 42 674
42996 0.49534453139696111 -1.1037389902913419 5.4046377754231312 0 0 0 1.0538532150245379 189 4039 191 4327
16729 -0.68578557539404628 0.36966874560050833 -1.0386734295090287 37 42 46 0.56427850571334859 45 5153 135 4670
10302 -0.41918849175052875 -0.26737073956151558 1.5435032625401068 114 128 149 1.539704761452023 149 4025 150 4179 59 4780 58 4707 57 4710 56 4865 142 612 144 2671 146 3256 145 3354 147 3661 148 3996
23285 0.59395340234361638 -1.7914837147110381 7.3776974097033934 126 137 155 1.0476557805751632 56 3224 70 139 167 2332 168 159 57 2957 72 158
16728 0.51310255683632633 0.1705590819758559 -0.32926612312420944 72 77 73 1.293773755129461 45 5143 136 4811 135 4664 46 5434
10301 0.78540136230582858 -0.49176880804160578 2.8522098233810294 48 54 47 0.84866482383135944 151 2860 153 3181 156 3635 158 4415
36567 0.5353959941897195 -0.97952046613811838 5.3915808066884541 41 57 73 0.76833717864286111 191 4760 193 4731
10300 0.83211615996088018 -0.54466069143639462 3.2169103642566905 78 84 71 2.0918064290140563 155 4042 156 4026 146 781 148 2802 65 5167 62 5036 145 706 150 3403
23283 -0.021765020087452982 -0.8767918947654687 3.7196716352857981 71 67 82 1.0610715801490784 71 91 168 108 72 113
10258 0.35165711304643216 -0.53079535184441751 2.6093710160223158 0 0 0 2.3414846937111617 61 458 151 545 153 460 150 535
49508 0.25268157484720494 -1.6153265651524451 7.3967430885383312 208 235 246 0.36084211073658434 193 4002 195 4304
23241 0.61109009725377039 -0.5703655437817402 3.127672059097097 55 52 30 0.86310535056820692 71 4674 166 4028 167 3962
16680 -0.40242380886826373 0.51403303233132047 -1.6278670256378598 226 226 224 0.69947462532188343 45 4499 135 4216 134 4336 44 4079
10253 0.95544345166556111 -1.0380875438270789 5.4865919460854746 80 93 101 1.0509404913346363 62 5165 63 5262 64 5375 65 5154 66 5074 159 4493 160 4330 161 4497 163 4289 61 4461 158 4887 60 4582 157 4737 156 4248 67 4674 68 4909 164 4415 166 4356 165 4727 59 4750 58 4688
10249 0.66598789165182892 -0.66473175474118951 3.4320464538252868 47 47 39 0.71217681460386695 162 916 163 880 68 3170 164 2729 166 3622
16675 -0.46608599757585883 0.32512864772737776 -0.75961880783696367 151 158 167 1.522697974432186 137 4653 135 4180 134 4499 133 4228 132 4810 131 4177 130 3682
29658 0.31507596656025372 -1.5776419105711765 7.596642835857927 101 103 116 1.5633973921516504 166 452 83 3220 64 460 67 2843 163 2543
10248 0.68754882892188807 -0.71725970055686183 3.5253910765425767 83 97 112 0.71111974829588154 66 725 162 775 163 724 67 755 69 3066
49498 1.9924072161070812 -1.298969372353491 7.1681222099415605 126 143 167 0.63019788672617361 191 3978 194 4066 195 4132
23231 -6.2285071888770398 3.9143074340739519 21.384486902038212 104 110 108 1.7160652169092667 164 4287 167 3846 161 4206 164 4132 168 4038 163 4148
42941 6.6804512413367787 -4.8827240776484926 20.388167808752851 0 0 0 0.56470125330714138 30 3294 118 2958
16674 0.54760724621102908 0.16904560873012558 -0.29641674419182656 73 73 73 0.99084952468316789 136 4295 137 4300 135 4168 134 4282 43 4775 131 3806 41 4512 39 3675 127 2577 38 2915 37 612 122 503
29657 6.5937037333526574 -2.9042257413810826 12.548602298543456 0 0 0 1.7383668591469721 64 578 75 516 76 576
10247 -0.21440924773407041 -0.63082958575807546 3.5359071464155871 58 63 68 2.2066340355370131 157 3645 161 4160 158 4402 160 3912 162 3748 163 3981 67 4155 66 4484 68 4577 164 4246
49497 0.37117569252438437 -1.2837338904533271 6.9258906140876855 78 84 95 0.071833421898527094 193 3210 195 4120
10246 0.084598088099648555 -0.42705291811192381 2.9729729635240743 148 148 146 0.16341553429901146 162 4415 163 4465
23229 0.39974132470176721 -0.71014181211494065 3.8320371181382678 184 186 181 1.4013720370456113 164 3313 167 3804 163 2680
16669 -0.40597416256128821 0.51175759574089086 -1.6236461189470424 75 75 73 0.86164996723478882 45 4167 135 4014 134 3315 44 1498 133 1361
3686 0.028577500576431207 -0.11586303406970579 0.78672431691166955 39 43 52 1.5347716977511894 151 4386 152 4519
29652 0.17957001115382937 -1.0785487163022895 4.7719769240332219 80 85 91 0.86543294159968298 82 187 83 3121
36509 -0.29307479589291097 -1.6232850838829616 8.0364984956213927 248 255 254 1.5051862052735501 82 4048 193 3704 178 3736 81 4053 177 3668 192 3498
10242 0.12823769101273855 -0.94323477478562523 4.1191369523844035 144 153 170 2.5003779150630145 161 4588 163 4381 69 5199 160 4509 68 5025
36498 0.53683196418451529 -0.97538636795211742 5.3899044717936864 96 115 129 0.088868739494942145 191 2988 193 3567
