# 3D point list with one line of data per point:
#   POINT3D_ID, X, Y, Z, R, G, B, ERROR, TRACK[] as (IMAGE_ID, POINT2D_IDX)
# Number of points: 286, mean track length: 6.0717173034293914
17354 0.9572109701324254 -2.3666390306619598 9.1215243471672363 166 172 186 0.5807850457689766 165 130 175 3330 166 161
4373 1.5415274872286191 -2.8177025059043896 10.059803858558984 113 130 146 0.62667618542126968 143 3814 152 4232 142 3709 148 3657 144 4171 59 4059 147 3627 57 4323 58 4193 60 4222 63 4435 146 3567 145 3772 136 3977 135 3551 134 3516 133 3665 132 3441 131 3674 130 3794 157 4493 158 4502 159 4073 160 3987 161 3872 163 3148 162 3404 164 3431 165 3879 77 3843 166 4102 156 4427 66 5076 69 4932 167 3910 166 4243 168 4362 169 4227 170 4664 65 4832 154 4864 153 4497 155 4258 62 4022 61 4188 149 3700 150 3556 151 3700 129 3669 128 3653 127 3673 126 3588 125 3510 124 3671
30339 -0.53249529027409981 -0.063732378181549781 0.71423084420833993 57 66 81 0.27233092465665293 19 637 21 2918
30340 -0.36991806105953401 0.11611687593854834 -0.064470825891047093 63 76 93 0.62946712349205036 19 2790 21 2926 18 595 20 2871
30644 -2.8942311029318195 3.46922968860591 22.134966234286019 98 99 101 1.0102186566947402 166 4529 87 4010 88 3969
4377 -11.157341105664486 -1.9209807847570304 24.794618011709161 221 231 223 1.8975224539758018 143 4267 142 4125 144 4643 141 4067 145 4196 140 4334 138 4417 167 3992 166 4299 147 4019
43627 1.9436867023235054 3.9513110862550813 21.704875163124115 148 154 154 1.2539430545587529 102 4171 83 3915 103 4224
17360 2.0144941648592378 -2.6477373559901518 11.122214097004239 79 90 95 0.58183359694512804 166 430 167 386 168 3054 170 3159 172 3057 173 3248 175 3429 174 3311
4378 -5.4939103211040718 2.2943285573496066 22.421007145938493 44 53 60 1.6797589427269954 152 4682 133 4388 121 4169 132 4088 148 3930 92 3894 87 3805 89 4178 156 4549 154 4988 155 4710 149 3991 104 4164 83 3886
43628 0.90616046901740266 -0.14351933716797091 0.0058451205449865616 208 227 234 1.2051567147465667 10 3749 83 3935 82 4159 81 4174
17361 2.1591598066254041 -2.4972239777421179 10.972839277842491 45 52 62 0.49444991233818714 168 3112 171 522 173 529 175 3491
30344 0.19221373463099306 0.24119635721971294 -0.36652187759564309 95 101 101 0.51832469464010122 19 993 21 3075
4379 -5.7996462243941167 2.3007815963375542 22.92391485981609 110 116 114 1.4770939493810431 143 4287 146 3846 140 4206 143 4132 142 4148 147 4038
30647 -1.0175422900900171 3.3027552677003893 21.96118603910946 128 128 118 2.3486076516845737 106 4291 165 4379 130 4865 87 4096 127 4671 129 4670 126 4636 166 4604 98 4473
4380 0.56492454383041235 -2.4280004014523806 9.0137064817922941 130 146 171 1.5252395148545967 143 4320 152 4817 142 4182 148 4085 55 4679 144 4706 145 4258 146 4008 147 4075 56 4958 57 4873 141 4124 53 4956 140 4410 139 4315 138 4467 137 4742 136 4593 135 4121 47 4557 46 4731 134 4145 133 4303 132 4141 45 4830 44 5008 131 4325 130 4464 49 5003 157 4866 158 4869 159 4494 160 4326 161 4196 162 3706 163 3493 68 5334 156 4793 67 5078 67 5144 65 5411 154 5268 153 5112 155 4837 149 4234 150 4095 151 4243 129 4294 43 5170 128 4328 127 4324 42 5075 126 4274 125 4088 41 4709 121 4062 124 4277 40 4292 164 3825
43630 1.034806695328552 -0.069256167291921328 -0.039165029053204438 56 69 93 1.0984674919093775 89 4142 83 3945 87 3744 91 3790
17363 1.8907322513780718 -2.284444711834166 10.169881093039734 253 250 246 0.5244079885845857 170 649 171 637 172 606 173 645 174 3414 175 3534
43631 1.1701019366316099 -0.08100323145302242 -0.040414458511299586 69 83 107 1.0993035660590389 87 3747 83 3948 81 4551
17364 -1.1046701953845246 -2.3376729767658615 10.523280378974128 199 217 231 0.49734765660601776 173 3415 174 3443 175 3557
43633 -0.81936194296518183 1.0829499056736738 -3.3466590875146074 94 100 114 1.0029717915803056 84 4774 83 3982 82 4225 81 4438
17366 1.450419230075084 -2.6729937427935089 9.9751827217947451 240 251 254 0.57337063083521289 158 205 175 4007
43637 -1.3915704579781836 2.9817764231119988 22.134424613733103 160 162 159 1.7754864637453978 88 3898 97 3872 83 4047 90 3724 92 4018
17370 0.55714645656692019 -2.3227214065231552 8.9606228748698857 66 68 80 0.72150817616666618 169 2801 171 3434 175 4031
4086 -0.67707267754929323 -0.81946535202145998 3.7705692612551864 107 114 120 1.1424919167206844 55 1141 54 1028 141 987 140 954 139 846
4388 -9.017734277285534 3.9983993492434173 22.427131656092588 58 64 60 1.5384202081425282 143 4511 152 4891 144 4903 136 4908 140 4582 157 5001 112 4902 111 5472 108 4549 100 4416 97 4047 96 4254 93 4104 146 4175 106 4217
4087 -0.46033119983390108 -0.78265936851412266 3.6447913250203756 38 38 46 1.0136666652902961 55 1155 54 1049 52 969
30354 -9.5907058749721958 4.9348963559585819 22.230769141801666 23 27 35 0.46937461614755671 21 3456 12 2929
43645 -0.48172621240076602 1.2993876278463066 -4.2022383303877708 189 190 184 0.81957204200944045 84 5024 83 4116 3 4442 2 4635 82 4376 81 4455
17378 1.7380488598195987 -2.3887662811377051 9.9705750023061146 100 104 105 0.80092360256445938 73 3275 175 4097 164 2753
4397 -7.4075573341296179 4.2216334165462985 22.343884461792261 47 55 57 1.619925007566388 152 2664 77 2231 102 3148 83 2970 2 2508
17380 2.1965766725647558 -2.4868358157852892 11.099346488240293 132 140 161 1.6096396543988831 167 2616 168 3132 169 3017 170 3260 175 4147 171 2965 173 3340 171 2964
17382 1.3301782798688833 -1.7470601102611119 7.5362927092112448 9 22 42 0.4404498040411402 174 4168 175 4260
37098 -0.82446896203836162 -0.20574553052994962 0.27907744913719518 51 65 81 0.86791074588407835 43 4519 128 3633 125 3132 41 70 126 3558 124 3254 40 52
10831 -6.9671162508954199 4.6373065359654868 22.253407156763441 163 179 171 1.8000003967950158 50 4668 161 3459 114 4086 162 3253
4404 1.537873047640878 -2.6278963387551699 10.072678430674445 140 149 160 0.61569110278434369 142 3735 152 4248 148 3676 143 3843 144 4193 145 3795 146 3588 147 3651 141 3457 132 3475 133 3694 135 3586 131 3704 130 3821 157 4519 158 4522 159 4094 160 4003 161 3884 163 3157 162 3419 164 3443 165 3893 166 4115 167 3928 168 4379 170 4677 171 4315 172 4566 173 4864 174 4958 175 5124 156 4449 153 4512 155 4483 149 3725 150 3570 151 3711 129 3687 126 3251 125 3194
43654 -3.6177703966167196 3.1994033228208991 24.722614955607437 57 58 60 1.6478150518538066 96 4211 83 4201
17387 2.2760202391948963 -2.2669175472403107 8.921654991673428 133 155 179 1.5397015024113507 160 2587 161 2487 174 4631 175 4506
4405 1.4884114057260391 -2.5184739166147425 10.00810588161845 89 89 101 0.67059476167918497 142 3749 152 4260 148 3689 144 4213 60 4263 55 4320 56 4435 57 4355 58 4240 141 3475 53 4436 69 4965 157 4534 158 4537 159 4107 160 4016 68 4924 165 4034 174 5076 156 4466 67 4739 153 4519 155 4499
17388 -4.021237882069407 -3.6044762669733155 15.157851220443147 117 119 130 0.023055855096074038 76 3686 175 4518
4104 0.18307543642234933 -0.40256166891432049 2.1618999225479656 232 232 232 0.50597260398380195 142 2849 54 1570 141 1429
30371 -0.33119819130608102 0.10842200039308106 -0.099478753273948992 150 158 178 0.31469640312906211 19 556 21 3595 16 577 18 530
4408 -11.231680786411111 -1.6286289007854431 25.847534668228079 75 88 94 1.2294516271441462 142 4229 143 4356 144 4758 145 4295 148 4115 152 4763 155 4799 149 4187
43658 -0.46791538739580557 1.2970157437865948 -4.181797311345707 126 126 126 1.6031746390323343 83 4233 3 4632 2 4842 1 4912 82 4462 79 6899 80 6575 78 7191
17391 1.398911997873167 -1.9088418903305864 7.688681958426427 98 108 120 0.35702764501845968 75 585 165 400 175 4557
4410 0.3077631173877452 -0.96589006955977674 3.6309796296035879 0 0 0 1.9980673626446124 142 347 148 329
43660 -0.84321679917900183 1.198201590107602 -3.7878597442356852 38 42 51 0.64468721655158234 84 5094 83 4256 82 4575 81 4780
17393 1.7090052769973141 -2.0679162536539764 9.125673751798935 115 124 132 0.51193311121986651 172 3818 174 4092 175 4585 173 3397
17394 0.49254872367149505 -1.889872482018192 8.0365016826702664 105 122 140 0.16279654148856354 174 4473 175 4605
17399 1.0267020852626925 -2.3265554138645039 9.2907918909974292 94 81 94 0.74951606265784199 77 3116 166 3633 170 4189 175 4748 64 619 165 3435 167 3387 70 3242 76 3334 153 522
4422 0.48801999883767577 -2.2443218998876877 8.7566518652359573 142 158 182 0.57353943026885568 142 3192 148 3200 57 3654 58 3607 59 3509 144 3581 145 2558 146 3061 147 3155 141 3156 140 2686 52 3119 138 2674 137 2805 133 2676 49 3149 132 375
43672 2.4480572985440472 3.8034157562406006 22.112601499855682 104 111 118 1.8498224008151805 165 4312 166 4533 100 4420 87 4048 86 4509 152 4898 164 3865 154 5370 84 5074 102 4448 83 4273 81 4920 119 4378
17405 1.3713430091694843 -1.9098710068297013 7.7190691564373717 44 54 70 1.6248108678790656 172 4315 174 4672 169 3826 175 5017 163 2079 74 2667
43673 -9.412934052621841 -1.6153919095544595 21.733984560016033 17 27 29 2.0685085036985202 136 1587 144 3178 84 1505 83 2792 33 1885 10 2706 85 2933 2 1530
17406 1.4073358088901384 -1.7761035998662391 7.6796038323954807 74 82 97 1.4890472536349946 172 4165 175 5077
43676 -7.8263297642101346 2.9792675383851646 22.393310840210333 119 124 125 1.7593778352810803 129 2261 105 2016 104 2150 102 2057 83 2016 15 2297 63 2434 71 2375 19 2184 21 2335 17 2326 66 2807 148 2208 145 2042 68 2610 160 2137 165 1784 132 2118 133 2250 166 1895 167 1894 121 2149 113 2352 133 2240 157 2513 110 2446 144 2206 121 2144 94 2144 84 2399 90 1901 155 2500 150 2003 125 2220 116 2317 23 2451 102 2047 7 1863
17409 1.0348268931507565 -2.3697979816583192 9.4062460060310684 99 83 96 0.96636677437065865 72 3941 77 3876 142 3211 146 3075 164 3265 168 4269 171 4216 175 5133 141 3162 143 3238 137 3629 145 3257 144 3607 134 3173 131 3358 156 4013 126 2605 121 496 40 2709
4427 -6.5958119874403716 3.0342530512872714 22.627204650420904 127 136 135 1.7918099088597108 148 3617 145 3911 136 4354 133 4109
17410 1.4524502989914609 -2.3718859700655419 10.253186159521857 131 119 121 0.76175063201505477 164 3475 172 4596 173 4895 174 4998 175 5150 165 3923 167 3821 166 3949 158 4351 159 3958 160 3863 156 4274 155 4306
4428 -10.630640050860432 4.501444624785921 22.639623964989898 37 44 46 1.6588131250397429 142 3871 148 3804 152 4387 133 4116 158 4260 168 4237 169 4105 171 4174 115 4416 147 3036 86 3976 28 5193 156 4175 66 5286 43 4970 23 4515 22 4198 20 4197 83 3905 82 4118 81 4348
17411 1.8194153254415333 -2.3936095027989306 10.380169722732957 82 83 88 0.29190064626257772 168 4289 169 4170 170 4589 171 4241 173 4896 175 5152 172 4482 172 4597
43681 -6.5032224438272186 2.7722051492080477 23.003599780654604 67 77 89 1.9277268788771538 174 3725 83 2919
17414 0.79372364487357283 -2.2997541167127888 9.0671327214159003 93 75 88 1.3234214328797125 169 4247 170 4687 172 4673 174 5073 175 5238
4436 0.56603130524857492 -2.6318536759816555 8.9990325740036141 141 159 181 1.4060452394042189 142 4169 148 4075 143 4305 144 4691 145 4245 147 4064 55 4660 146 3998 141 4112 140 4397 52 4910 139 4302 138 4461 51 5226 50 5108 137 4862 136 4584 135 4115 47 4544 48 4426 46 4718 134 4136 133 4294 132 4127 45 4817 44 4996 131 4314 130 4454 153 5104 154 5255 149 4132 150 4086 151 4236 152 4807 129 4285 128 4319 127 4311 42 5220 126 4260 125 4080 124 4269
4444 -4.9617087630966505 3.5483820663535885 22.148255052073047 146 157 153 1.5495744042226736 148 4202 145 4394 144 4857 140 4540 138 4626 119 4336
4143 1.5241481400979451 -2.5204432279453872 10.027527820162048 145 145 155 0.82919031162664669 55 615 58 2944 59 2794 60 3003 63 3019 142 556 144 548 147 2599 54 2874 56 544 145 556 53 590 52 612 141 2624 136 516 135 512 132 463 130 547 70 3985 71 3611 157 3720 159 3370 72 3350 74 3187 77 3462 164 3032 165 3429 167 3381 168 3907 169 3767 170 4181 171 3788 172 4028 173 4508 174 4605 175 4744 156 3649 67 3902 66 3492 62 2798 61 2934 149 2617 150 2443 128 560 127 540
43707 -0.75531879748673214 0.40678103171568764 -1.3506177185772912 116 123 140 0.91020536209100156 10 311 13 2541 91 324 11 349
17440 0.7080222266049967 -2.2884033458146522 9.440526411285683 198 194 182 1.1235548299456299 172 4286 173 4721 174 4829 175 4973 170 4214 171 4054
4458 -0.16777039170148986 -1.0838068940219245 3.9945935253280207 125 128 145 0.51891802193133407 143 250 141 300
4459 0.43776375819147434 -0.57012055642926773 2.0566388885785027 46 42 15 1.1684221033309623 54 2773 142 3144 141 309 53 319
17442 -0.52080641352810064 -2.4207668684794434 9.0635684287349978 46 57 67 1.8196947368658059 70 277 72 160 75 140 69 262 164 113 168 143 171 2822 172 215 174 3232 175 4456 68 251 77 144 165 112 166 150 169 138 170 3068
30425 -0.41119872024798676 -0.29864852186945562 0.92831849576796743 122 134 156 1.1774292947113221 19 3790 21 4151 13 2447 6 233 9 148 88 233 89 171 4 175 10 151 91 2310 11 2344 7 212
36853 0.94549103150657321 -0.48091656455824661 2.5197218603099927 128 131 122 1.0838561216638765 44 3384 46 4111 43 3568 41 1060 40 671
4460 -0.14050179715231589 -0.88146162743088852 3.2679593621451475 139 147 158 0.45081758606503836 55 319 141 310 142 275
43710 -0.78570770151859115 0.41364384464766207 -1.3247528814022822 72 80 91 0.66025958756547298 10 366 91 378 11 414
17443 0.97704061933995234 -1.6809569462662897 7.1618195753921388 34 45 62 0.66070689008955596 173 4939 174 5118 169 3637 170 4008 171 3958 172 4530
4461 0.7972070622645584 -0.97894595252897587 3.6175920583288974 101 105 118 0.37011473602705441 143 2545 141 451
43711 -0.78621706870942509 0.41221946883479771 -1.3200804351486846 72 80 91 0.75064271968743967 10 365 91 379
17444 -10.860094584509683 2.4784338773221917 22.926442342458536 46 52 55 1.1347229411855844 147 4036 170 4513 171 4289 172 4544 156 4547 86 4116 116 4551
4473 1.3274865826690816 -2.4478520345020534 9.8015641220095731 134 136 149 1.5684700517913457 54 2876 59 572 63 3027 64 3274 144 554 145 558 141 631 64 3272 143 573 147 2602 148 515 54 581 59 571 144 545 152 2987 52 625 136 514 135 518 134 492 133 466 45 547 44 660 131 497 69 3273 69 4041 77 3466 68 3146 76 3660 162 2793 167 3388 156 2778 154 3150 154 3155 153 3134 155 432 61 604 149 2624 150 2450 121 530
4477 -0.69505167849251792 -0.93932867110493512 3.7975626513203697 93 86 99 1.2674755213539346 142 639 141 668 143 2658
4480 -0.71277391137664614 -0.93653211477531362 3.7796313335428096 74 72 75 2.1620385694424895 55 772 141 694 52 593 50 480 48 359
4482 -0.16407959211731318 -0.69589146548399672 3.0095982705676669 56 63 82 1.0585607300743785 54 2981 142 831 141 861
30448 -0.4021657233303978 -0.31410197867527212 0.98959751879877189 160 172 194 1.0567183162112526 19 4090 21 4328 16 3717 15 3377 17 3267 93 178 87 223 12 2404 92 225 4 180 9 151 11 173
4485 0.76371719659501969 -0.80643916136064409 3.4705416516285656 49 48 34 0.63896100940216494 55 3170 142 880 143 2729 145 3622 141 916
4486 -0.46310911827052459 -0.79218838007181158 3.6525144257793229 63 67 78 2.0928199827928995 142 966 141 974 138 787 135 698
4488 -0.67465808392044058 -0.80681864505566003 3.8157355897300254 111 121 133 2.3766874965016433 57 1171 141 1022 140 1004
30454 -0.4334133132348309 -0.20463721837335752 0.83092284893066626 112 120 139 1.3781817778159118 14 3226 15 3402 93 2377 94 3206 8 253 9 247 90 2913 97 2964 17 3673 18 3984 4 280 86 347 87 275 5 306 10 254 21 4346 91 2342 11 2381 7 302 176 281
4490 -0.17887420731674036 -0.61603232086342785 2.8718018922028308 62 70 82 1.4353325318451517 142 3289 141 1048 140 1014 55 4141
4493 0.70593669452188668 -0.55694025507186207 2.7740897305016641 37 42 36 0.24950575813774911 144 4270 141 1247 140 1218
4192 0.62713972368287008 -0.48655437728849543 2.5386875696543822 65 67 43 0.49738522289615938 142 3593 54 3659
30459 -0.20375344636598811 0.27844836837053949 -0.54159063323246359 153 153 155 0.7879014717446281 19 4177 21 4402 20 4116
4496 -10.765048610111636 -2.0112562363079114 24.459131544690059 118 130 119 1.7217904767788295 142 1448 143 2872 144 1436 146 2759 141 1574 140 3007 147 1508
30462 -4.9286302135965006 3.6103138387990721 22.202412332107592 147 160 165 1.5524603913623676 75 4159 41 4351 77 3830 76 4255 73 3912
4497 0.3872488488024694 -0.36060572447485756 2.0716351571296041 171 171 169 1.1340240123678105 142 3348 141 1594
4502 -5.8841597411975375 2.4484418399015295 23.323998081881207 91 97 95 2.5900594119021831 141 2131 147 2016
36898 -0.77244413180887039 -0.04311317364578339 0.62456105642312976 137 146 163 0.53874806428836453 44 4702 43 4620 127 3738 126 3315 125 3246 121 605
4505 -10.177351667936348 4.4280890831996924 22.538993227756222 52 61 75 1.1451592847569867 143 2234 137 2470 152 2602 157 2664 115 2609 100 2325 154 2782 155 2676 151 2280 104 2311
4507 -10.005207683808637 4.5509051700231185 22.889376972856887 80 100 132 0.33026994174470553 144 2447 138 2334 148 2331
4510 -1.4553388142981691 -1.3159843840380521 4.286573649583044 4 20 44 2.5004776580926418 54 2751 142 2446
43760 0.91867775188118694 -0.030799736729776712 0.10505963480311262 45 60 73 2.0935295524774262 10 418 12 3337 88 2366 92 3129 90 377 91 2391
17493 -5.7920193541940161 2.2696742933220309 22.344118953315693 165 174 181 1.474513568608625 152 2358 121 2059 157 2444 109 2311 99 2997 150 1929
4513 1.2902210886559706 -1.1808734175190014 4.1291339622185692 16 32 55 0.51481795479678882 56 2901 141 2536 144 3571
37210 0.48114280101690005 0.32676274025379365 -0.36618981536507511 130 131 125 1.8180956491393288 129 3480 128 2871 127 1231
10943 0.13326359160067386 -1.5752654739249741 5.9891674438977516 104 118 131 1.955250712466871 56 375 60 360 62 388
4517 -0.66331109110599507 -0.97315278734006649 3.695602288958626 68 72 84 0.34804152721379339 57 590 141 2574
4518 -0.051270791289391618 -1.1981071108505357 4.7843205643183042 107 114 130 1.1476832064199771 143 3234 141 2606 139 530
4521 0.11861163125263291 -1.2570664591290539 5.3997923799939107 64 68 69 0.80837492482083451 142 2624 143 711 141 2671 53 745 140 801 52 786 51 645 50 636 49 646 135 619 133 552
36915 -0.76571166811911384 -0.033709429104999224 0.65957021122385073 79 86 102 0.67016096640689526 44 5045 43 5060 127 4183 42 5105 126 4137 125 3823 124 3994 121 3311
4522 0.048034189630433662 -0.73438827877629353 3.2843707530558364 151 154 171 0.80151520078425942 55 3819 142 3268 141 2711 53 923 140 924
4524 -0.01996627134718389 -0.59715388552390303 2.8543821500404554 165 172 188 0.93272197012585456 55 3272 142 2737 141 2772 53 1125
10953 -10.296132477464615 2.8177108119119212 22.59742286343285 59 67 69 1.435993780923966 58 2245 68 3814 73 3047 19 3165 23 3528 3 3023
4526 0.44529569251944867 -0.45444764318920849 2.4185961865050718 33 33 23 0.34929919803671811 142 3324 141 2832 140 1305
17517 -9.6450885376818754 -1.8256804879638178 22.638019432909303 118 129 125 2.2771803698074509 77 1198 73 2907 52 1793 49 3575
43787 0.18291644671842694 -0.14092589515397289 0.85897792774042403 94 97 104 2.4351666455302885 88 2372 89 3277 114 4667 91 2979 84 3080 85 384 86 2624
17520 -10.57161683095612 2.3419876396514669 22.69873578865672 87 94 102 1.3009359533374658 138 3120 146 1880 121 3067 145 1857 114 2220 161 1917 100 2015 99 1930 93 1934 92 2905 152 3469 84 3507 127 2108 111 2237 116 3360 104 1958 117 3260 81 2033
17523 -10.593961372955601 3.0382512800915586 22.725312858039377 59 87 124 1.1109927322623421 131 3602 166 3028 167 2887 121 3081 106 2902 87 2730 89 3049
36937 1.1468975726435262 -0.12153274314124453 0.84896090001052515 43 48 51 0.58597464234591612 44 5266 43 5348
4544 0.2524434248026472 -0.4889735801580179 2.5342668972410016 217 217 217 0.87348425257530737 55 4397 141 3268 53 1321
4545 0.16356327534403339 -0.38811881389020941 2.1206935670568989 181 180 178 0.91603240158343713 142 3813 141 3287 55 4602
43795 -0.23873410956694532 0.5038822601252928 -1.2141137863534663 176 182 182 1.0307063834784536 88 706 92 3475 93 3574 91 3046 90 701 94 3983
17528 -7.5346094656798179 4.2171275112785791 22.245956511207371 14 25 32 1.1265795453158127 55 2702 167 2983 121 3140 65 3010
4546 0.14707379935088752 -0.38011041360859532 2.0952662797912405 195 194 192 0.81691997337540156 55 4603 141 3289 142 3814
17529 -12.020257689214905 5.7846801803550338 23.057815528183017 60 65 68 1.9597202926681738 140 2479 164 2622 121 3155 90 2804 149 3105 104 2419 128 2393
36950 0.60734359422335649 0.2169502339959235 -0.0096473782969075852 35 36 40 1.8089946616582406 45 5147 42 5540 126 4598 41 4998 40 4525 121 4462
4560 1.2378405665292684 -1.655323611201112 6.2766163147820926 251 255 255 0.91365762398791506 146 3590 141 3458 140 3366 145 2569
30526 0.787986689853162 -0.31625481729189237 0.95365400361293529 55 68 77 0.65142144644762823 19 4309 21 4503 18 4172
4565 1.4253950575838534 -2.5964383436427001 9.9089912287663751 109 127 141 0.54105421248869934 142 3731 143 3840 144 4186 145 3789 146 3583 152 4434 141 3694 147 3648 148 3673 140 3924 139 3848 138 3975 137 4062 136 4236 135 3582 134 3777 133 3688 157 4517 158 4516 159 4091 160 4000 161 3877 163 3291 162 3559 161 4017 164 3577 165 4025 166 4252 167 3926 168 4377 169 4237 170 4675 171 4313 172 4564 174 5066 173 4966 175 5229 156 4444 154 4879 153 4709 155 4480 149 3721 150 3760 151 3916
4264 -0.17665010590744373 -0.58555459244912611 2.8662330852186932 90 95 98 1.1556366175455293 55 4584 54 4360 53 4714
4566 1.4255193788405649 -2.5967377810359049 9.9092978845537232 109 127 141 0.51816948502702731 142 3730 143 3841 144 4187 145 3790 146 3584 147 3649 148 3674 152 4435 141 3695 140 3923 139 3849 138 3976 137 4063 133 3689 157 4518 158 4517 159 4092 160 4001 161 3878 162 3560 164 3578 165 4026 166 4253 167 3927 168 4378 169 4238 170 4676 171 4314 172 4565 174 5067 173 4967 175 5230 156 4445 154 4880 153 4710 155 4481 149 3722 150 3761 151 3917
30532 -1.9757072770715673 2.4657645788106057 21.994474190726987 62 64 62 1.7128374858222248 68 4845 72 4210 28 5180 27 5032 70 4819 62 4368 76 4123 3 4226
4570 0.01375584236689157 -0.72143091898541911 3.0583798624430685 159 175 201 0.80553908598388568 142 3764 141 3730 140 3721 138 3435 135 2727 134 541
4576 1.9285176886378537 -1.2177749723943447 4.6248757461491916 57 68 99 0.75014547347726002 142 4096 141 3895 140 4134 139 4068
4577 -0.117111039666834 -0.59659617106083251 2.7506762312546376 63 66 82 1.2751245690967592 142 4110 141 3915 53 4708 140 4152 52 4567 138 4024 51 4821 50 4491 137 4395 49 4373 135 3613 47 3501 134 3566 43 3435
36976 -1.1373168380908596 -0.75562148000709783 1.9963965073204011 128 143 162 0.35948719072368562 129 26 126 50
4603 0.64096641529058029 -2.5639618244942612 9.1043334033876029 129 132 142 1.5096319554338624 143 4476 144 4869 145 4402 147 4193 148 4205 141 4283 140 4480 138 4574 135 4319 134 4353 132 4349 131 4545 130 4686 152 4901 154 5374 153 5212 155 4939 149 4280 150 4146 151 4347 129 4492 128 4515 127 4511 41 4821 44 5131 49 5244 121 4309 43 5256
4604 0.07619367197837322 -0.4045484272625644 2.1503622579651318 179 179 179 0.14861961926911149 142 4394 141 4308
4613 0.21668236774073871 -0.3716869604191439 2.0763713231713283 186 186 184 0.67832121425813918 142 4431 141 4371 140 4606 138 4602
4620 -1.3781022179055249 3.233843778481754 22.848776327709334 152 152 142 0.84758008660030093 142 4445 147 4301 140 4666 139 4574
4635 -0.25930299473474938 -1.0871412402492433 3.5856082126034101 170 177 196 1.2544991276448616 141 27 53 24 139 39 51 67
17618 0.82240258155431034 2.999128263025685 21.928557969722945 140 142 141 1.1885151953763502 160 4426 131 4652 121 4486
4335 1.5516342396624661 -2.5573373988761618 10.097990361885692 72 75 84 1.064293400766537 60 3657 142 2568 143 2612 147 2583 148 2626 54 2866 56 2980 58 2936 59 2783 144 2899 145 2604 146 2501 147 2582 63 3805 152 3690 64 3244 152 2951 53 566 137 528 135 488 135 493 48 424 47 452 46 568 134 466 134 462 133 444 132 442 45 522 44 645 131 476 69 4022 71 3599 157 3711 158 3664 159 3366 160 3232 72 3697 73 3542 77 3452 68 4031 76 3649 161 3132 163 2815 162 3107 164 3022 165 3418 166 3620 167 3379 168 3905 169 3762 170 4176 172 4025 173 4273 174 4603 175 4741 156 3639 67 3889 66 3471 66 4329 154 3996 155 3647 62 3453 61 3606 149 3206 150 2435 151 2593 43 814 128 541 127 526 42 765 126 485 41 689 124 449 65 4148
4637 -0.095935688374654521 -1.3511929741948259 4.4796600278045693 191 194 211 1.6219930050754567 142 35 53 37
43887 -0.71635275009948018 0.70290148837755551 -2.0343581404545374 47 54 62 0.90064268111963297 90 3770 91 3888
17620 2.1854564450952294 3.6178856519900204 22.288676728776053 0 0 0 1.9984192191448729 136 4938 137 5081 139 4533 140 4635 142 4407 141 4355
4638 -1.843264606141896 -1.6849148450861873 5.1540911086763588 10 18 35 1.9702738490664924 141 3072 53 61
24051 -8.0787836082308875 3.6964884865382706 20.723867607771119 66 73 83 0.94068332602410532 106 3906 98 4083 96 3964 128 4294
37034 -8.5977613974503182 2.8483372909745168 22.450446660367518 139 145 145 1.3152589391735261 131 2216 157 2476 128 2160 127 2211 118 3036
37035 -8.5855816565698664 2.8486114088276997 22.413517518653027 139 145 145 1.03388071310343 157 2477 128 2161 130 2289 131 2215 22 3428
4642 9.3393324008726513 -8.1750206692222616 24.256105416288733 183 211 233 0.63172705253508632 60 2821 53 86 63 2820 64 35 52 104 51 3060 50 3100 49 3028 48 2537 46 2740 45 2765 44 171 66 50 65 3165 62 2602 43 3164 42 3244 41 2947 40 91
4649 0.047369071282403759 -1.3653680468100515 4.867748699568387 197 201 217 0.87009483943381161 53 209 138 2598 136 232 140 211 135 249 62 4011
4652 -0.72716035590915984 -1.0889454057450663 3.9421107076615258 46 50 59 1.8788404980411002 142 281 53 271
30618 -5.7604135781629671 1.9837105884649715 21.542422987365896 137 139 136 0.93654505747628336 93 3625 100 3942 87 3572 99 3953
4658 -0.60397694156765047 -0.97366960713555484 3.6690193681725605 84 84 92 1.7461300232989865 141 438 53 375
30927 -1.1611572286823055 2.6535097259828317 22.473654281289679 109 112 102 1.9428214276011562 162 3798 115 4923 86 4506 109 4985 121 4521 107 4535 132 4498 87 4006 106 4246 129 4594 126 4584 110 5125 163 3524 81 4914
4660 -0.73023079056493545 -0.99387388300675117 3.7420376189385793 112 112 122 1.6650725738677425 55 2998 53 409 52 379 54 2834 139 385 50 336 136 318 48 243 47 246
4359 0.037709051841165388 -0.39685513719451648 2.1276624124722314 117 122 128 1.4615532793698729 54 4805 53 5182 52 5222 51 5543
30626 -10.091551470074036 2.1831972978847043 22.290274456256068 0 0 0 0.91625690618784139 141 3955 147 3912
4662 -0.61764539924961737 -0.96941926895567687 3.7078186378552918 122 122 130 0.8424179802742362 54 490 53 438 52 412
17645 -0.97014924447525419 3.3814649469378431 22.376482600724806 169 169 157 1.2388610901429344 162 3858 157 5078 163 3597 161 4363 84 5133 115 4982 83 4335 81 4968
4663 9.2685793932065348 -6.7236283717007339 23.178798068221457 230 246 253 1.0652655664077786 64 342 53 443 52 444 51 411 50 406 49 408 44 534 52 4249 41 3792
17646 0.42210297531267765 -2.1762901840913056 8.7396462618987059 145 146 161 0.63121020518611681 171 3807 172 4044 173 4305 174 4346 175 4481 75 3317 157 2948 72 2692 77 3132 164 2736
4665 10.205791675986788 -6.8553797831577175 23.971512383182919 144 164 173 0.7919781286539892 60 2950 53 497 52 522 51 479 50 3237 48 2671 47 420 46 2894 45 503 76 2635 65 4121 61 2884 42 727 41 671
4669 0.81763719040355776 -2.1798716215738403 8.6406485586998922 134 133 147 0.92709776117777309 55 3009 56 2972 57 2938 58 2930 59 2776 60 2980 63 3004 64 4023 146 2490 147 2570 53 547 152 2954 138 557 50 496 49 509 139 548 48 400 69 4021 71 3602 158 3667 158 3668 160 3234 72 3331 74 3492 162 3105 164 3021 156 3640 67 3886 66 4325 65 4147 154 3995 153 3101 155 3646 62 2784 61 2924 150 2434 151 2595 129 494 43 780 126 467
4670 0.59133216703614688 -2.2565936574474406 9.0350345813630533 72 77 89 1.2368836022899123 56 508 147 539 53 548 143 526 63 630 138 565 133 442 131 475 144 511 148 500 145 536 130 520 72 2686 73 2577 157 2935 160 2559 68 532 161 2441 163 2020 162 2188 126 481 121 500 142 497 145 517 59 545
4675 1.5275208163247742 -2.5036397095569294 10.11358155939581 139 139 149 0.47444810694464978 59 595 60 607 63 687 141 661 145 591 147 597 53 622 69 609 157 504 159 435 72 460 73 491 68 585 76 2725 162 392 166 2573 167 299 168 278 173 3925 175 4069 156 512 66 622 65 610 154 498 153 567 155 468 149 536
4374 0.53768298417927918 -2.2156419525634221 8.644485251512938 106 113 129 1.0613348029912637 143 3842 56 4414 57 4350 60 4251 63 4664 64 4897 144 4191 145 3980 147 3652 139 3625 138 3738 137 4065 132 3473 51 4774 53 4426 131 3702 136 4238 141 3699 152 4443 71 4503 157 4698 158 4683 159 4267 160 4266 73 4098 68 4904 164 3701 67 4722 66 5351 65 5090 153 4714 155 4486 62 4244 61 4436 149 3904 150 3762 151 3918
30641 -1.3822119007731575 2.2999213733261645 22.481862609760597 214 206 169 2.0170569117890698 92 4190 96 4251 108 4540 93 4099 95 4414 90 3898 89 4285 88 4008 85 4453 93 4098 133 4584 94 4319 105 4169 103 4507 91 3938 119 4330
4682 0.78665951633253262 -0.88633991011020374 3.5931831755706845 92 101 110 0.45168082084728389 54 755 56 3066 142 724 53 725 141 775
30648 -2.3029392044926174 2.9620350748268178 22.454007233345646 0 0 0 1.8901254059867345 162 3863 130 4878 114 4834
4683 3.578201630575657 -2.606004344428785 10.455408409227719 118 124 136 0.80680478253781762 57 696 148 2703 53 771 145 2667 47 631
37379 0.27302220601119598 0.3883307954777685 -0.66091665351362361 92 99 85 1.5822073943947565 129 4524 127 4225 42 4981 126 3982 125 3626 124 3428
11112 0.30922218115409866 -1.4309403176658886 6.087446357679835 163 163 173 1.1528987973453839 68 1009 69 1101 70 3432
37078 -0.1873630918083185 0.38134557964786919 -1.0797528876537386 128 139 161 2.3133393779255655 129 3767 128 3388 125 783 126 805
30651 -8.8734224862727409 2.0689134127165998 22.758011287240635 65 74 73 1.4921175583988753 162 1691 108 2156 115 2227 21 2154 87 1845 111 4389 15 2158 17 3141 23 2123 101 2007
11120 0.076668729933411006 -1.321294579514817 5.7117390274671207 114 121 127 0.56197503011700889 68 1203 69 1375 156 1129
37086 0.47528989017417123 0.34750139174161898 -0.43271543539181601 129 130 122 1.8683116958666475 129 3801 128 3451 127 2964
4693 -0.74161961005483357 -0.83306001050256095 3.7951600730280841 117 118 122 1.1583964327371996 54 1012 141 965 53 971 140 944 139 821
4694 -0.62777782697212314 -0.80982419628867064 3.7751025631507034 42 40 51 1.5103853224365709 54 1063 55 1168 53 1019 51 790
24134 -0.94433133615165432 -0.055940157145761102 -0.026609364582997598 67 79 93 2.2089897899894613 99 2544 98 2568 18 2622
4732 13.180760462055542 -8.2724854109025721 24.200354472149598 178 199 229 1.5695486721249716 57 2833 63 3728 53 2918 55 3669 64 3112 52 3833 49 3894 47 3395 46 3560 69 3128 71 2757 70 3894 67 3821 62 3395 43 4156 5 3471 4 3545 7 2861
4733 -0.2579065763975748 -0.99066176046575893 3.6132823618703136 145 147 159 0.7181213314078797 141 2515 53 2920 52 258
30699 -1.1641421598263135 0.49150222036678654 -1.5387247309562184 183 186 207 0.79524110106847967 87 493 84 382 4 438 83 353 2 462 1 471 81 396
4738 12.111171445826717 -6.9758731237248668 24.270351360384502 189 213 244 1.0410567123044812 55 3025 53 3045 63 2977 44 3200 68 3103 70 3193 67 3117
11172 2.5907555241034084 -2.8504084297388954 11.409574425099407 52 64 80 0.96598829123196595 63 3041 64 4038 152 3000 69 3297 60 3028 71 3637 159 3386 160 2583 72 2717 161 2473 156 2793 171 3474 174 3270 67 3915 65 3369 154 3178 62 2813 150 2464
24155 -10.718409702728399 2.7757271731589128 22.753609854675155 58 71 84 1.0922944383877971 109 2310 145 1919 148 3033 152 3480 143 3005 146 1909 137 3337 135 3152 132 2970 133 3166 134 2090 157 3552 158 3417 159 3169 164 2514 166 3014 167 2871 140 3159 131 3136 130 3269 111 3845 113 3515 112 3314 114 3333 110 3549 139 2104 108 3177 107 3146 115 3406 100 3051 99 2992 98 2053 97 2798 96 2963 94 2997 95 2133 93 1968 92 2914 106 2895 86 2006 84 3522 88 1892 89 2164 85 3090 156 2249 154 2386 153 2432 155 3464 149 2041 138 2093 150 2902 151 3043 128 3126 127 3164 126 3122 116 3373 105 2822 104 3063 124 3148 101 3009 117 3272 91 2750 118 3024 81 3350
4745 13.31191256695902 -6.8100445997713193 24.283196056958815 231 250 255 0.99302623737306994 63 661 53 3097 50 678 46 774 44 3274 68 582 69 602 70 3258 76 503 62 572 43 1051 41 983
4749 2.1658697027512601 -1.206491087019343 4.620853700824826 25 33 48 0.89494573103356123 54 2979 52 3240 51 3293
30715 -0.73397552954004863 0.94321497953250233 -2.9731804162082414 93 102 111 2.0682452078638169 87 2508 86 901 88 3345
37445 -7.210331647702386 4.2226978809392293 22.360974869537888 51 59 56 1.8818874114644804 149 4215 162 3619 113 5088 112 4843 107 4382 144 4861 54 4710 97 3954 72 4479 93 4009 64 5310 9 4064 18 4573 4 4769 155 4826 61 4759 161 4101 127 4501 126 4522 22 4828 117 4695 102 4342 121 4440 40 4509 11 4027 91 3907 87 3817
11178 11.247222986157604 -5.7355137506214477 23.578872757446362 233 251 254 0.57354447136793507 55 3138 57 3054 69 3360
37144 -0.79169740849014691 -0.28100299466388678 0.50640830619253119 69 79 99 1.2039174678577811 43 4983 128 4141
4751 -0.14734840016288583 -0.58601055785035883 2.7815079947764758 35 42 50 0.93775228224329943 54 3082 53 3211 52 1048 50 836
37447 1.3144012815593904 -1.1961943931162442 4.1971888916220914 70 85 90 1.9375769235831013 133 2617 127 346 132 2445
11180 -0.25648506249303848 -1.8608778390554157 7.9289021056946662 248 252 254 1.2162281772500352 64 833 69 3383 70 3370 68 3254 67 717 65 3426
24163 -0.24965446228380045 0.2171427285433295 -0.27635882685187602 105 115 126 1.9680828129690633 98 4156 97 3716 96 3899 95 3885 93 3360 92 3162 88 606
4753 0.21329578100831137 -0.43023707400197586 2.3016904006873613 97 99 98 0.76999823118264799 54 3673 53 3303 140 2918 139 1143
30719 -0.79281834770139747 0.97066381901808296 -3.0444875427565803 107 117 129 1.3080778839324769 87 996 86 969
4754 0.18473328734014949 -0.42081109935265404 2.253860663691845 132 132 132 0.86161833144896827 54 3934 141 3544 53 3304 140 2919
30720 -0.79057413863376413 0.97186583561403639 -3.0440978016107025 45 55 67 0.93631881150483587 87 1006 86 980
4755 0.66627907316479884 -0.43416398470088918 2.3646030264476812 55 58 38 1.0658069917171875 141 3286 53 3320 54 3679
30721 -0.81585075153962028 0.96646447968958837 -3.0160372580800296 33 45 61 1.0209016527673749 87 1008 86 982 84 749
4756 0.23700984663702468 -0.35938955200951955 2.0342406054265063 178 178 178 0.93184947564890874 54 3945 53 3332 140 2956
30722 -0.73784802637014857 0.96488965884311173 -2.9793503138489639 111 119 130 1.0984770560035435 87 1018 86 1007 85 823 88 2594
4757 0.13375469654326358 -0.32757231971454853 1.9076735711100461 87 87 87 0.72890511320805118 141 3308 53 3357 140 2978 139 1311
4758 0.39096619569850588 -0.31357747975518985 1.9265695768503419 41 41 39 0.31814785574364984 141 3577 53 3384 140 3008
4457 1.2877897849350444 -1.7661168748217297 6.1857476347865124 139 140 142 1.3607736606002925 142 2456 146 2999 141 280 140 290
30724 -12.824616083979945 5.8256531989478706 23.519163817826666 10 14 24 1.7717004095055915 167 2274 86 2336 166 2261 156 2528 153 3753 81 2543
37460 -0.82771159556574581 -0.12303375374039494 0.14584888695228465 106 122 147 1.688519498466595 42 5558 43 5468 41 5012 124 4541 127 4625
11193 0.27523942384264044 -1.3722009708746594 5.8712614323431662 112 113 95 0.6785182935927907 68 1071 69 3465 157 1110 156 998
37159 -0.80573553644305451 -0.068146374296574372 0.46561711058246918 57 70 87 0.90529978647253762 129 4427 128 4338
4766 -7.5013449791445401 4.5121386823638092 22.395987799502141 192 211 205 1.2264650988623893 64 2962 148 2396 60 2741 138 3257 157 2744 98 3159 8 2080
4773 14.337148993353564 -8.6349662177989988 24.792026308352959 235 254 255 1.0827616584056394 57 3597 63 3732 53 3732 64 3963 44 3939 77 3057 43 4161
4779 0.43548723684718649 -0.53866828418108437 2.0666805340106666 138 152 161 0.87176113723571225 54 3846 53 3784 51 507
4780 0.45562075500861549 -0.53990086615610622 2.0717781890005496 154 161 177 1.7979543873084329 142 3518 53 3787 52 3165 50 498
30748 -0.71339406731586053 0.86734140160748352 -2.7847665526927186 57 73 90 0.31450643888909807 87 2440 86 2702 85 592
4785 0.16277529593735099 -0.85066520374539401 3.9049390805044673 100 98 101 0.81165725095152541 141 2723 143 3319 142 921 140 956 138 2803 139 2770 137 2900 135 2777
4484 1.9396802650900169 -1.1587492162126318 4.6499987889748153 86 103 131 0.97194290176997489 142 851 141 904 55 997 53 927
30751 -0.80557869958019979 0.97303950672651052 -3.037300712688197 97 110 118 1.1417866110271309 87 2529 86 2770
37181 1.3067806482618982 -1.3226164558269482 4.3454274248898415 236 250 251 1.5750146281528625 129 4610 130 4817 131 4689 132 4504 133 4626 128 4629 127 4605 126 4570
4788 0.89703713678135888 -0.49850159066221356 2.5534636541465763 125 135 110 0.25033237443381229 54 3927 53 3922
30754 -0.89969721954792847 1.0158930294358022 -3.0720044205558863 76 85 80 1.1825185193424856 87 3045 86 2832 85 1000
4790 0.24144995298662361 -0.40630237868026986 2.2145535322505352 179 181 180 1.0306260853204821 54 3937 141 3550 53 3927 140 3484 139 1179
4791 0.19753477817258919 -0.39591363272981595 2.1727689989807857 194 194 194 0.99158946167036144 54 4187 53 3928 140 3487
4800 11.726699637695086 -8.5332952166190115 24.442192617577561 173 203 238 0.5309367548310121 55 4025 63 4134 53 4117 68 4436 69 4444 67 4229 62 3733 42 4856
4802 -0.67339875059147991 -1.0266231424551888 3.7809975376976963 98 102 111 0.87844597375140077 143 3573 144 4176
4807 11.903453176280669 -7.438889144922908 24.343785047215274 169 183 203 1.0999088507317509 53 4166 52 3872 48 3349 44 3972 75 3250 70 4368 76 3289 66 4795 63 3749
11247 0.070337688958790751 -1.2468451782136862 5.2984535923004294 43 49 63 1.1151258812425955 68 4228 69 4266 157 3883 156 3187 66 3678
11248 0.071121322590870395 -1.2467108379673359 5.2963443060577564 43 49 63 1.5331579657523076 68 4229 69 4267 66 3679
4823 11.566445085543899 -8.5882256563525061 24.208317644430721 210 231 255 0.45617280477903904 54 4020 55 4266 63 4410 53 4371 52 4461 51 4729 49 4580 48 3992 47 4106 46 4323 45 4408 44 4601 68 4425 69 4712 67 4225 66 5057 62 4002 61 4171 43 4791 42 4845 41 4377 40 3645
4824 11.777853786046986 -8.6662562722112604 24.874862570359223 164 195 226 0.71445201540980352 54 4031 55 4024 63 4131 53 4377 51 4420 49 4297 47 3806 45 4120 44 4347 68 4433 69 4440 74 3432 67 4228 66 4758 62 3731 61 3907 43 4533 42 4567 3 3589 1 4110
11254 -8.8144914797740732 2.4474301773688021 22.528393496100577 75 83 81 1.6538607973438257 139 3497 69 4380 71 3410 158 3412 160 3073 58 2208 148 2098 170 3630 171 3686 113 4392 111 4696 157 4268 109 3423 30 2399 106 2891 95 3093 97 3177 16 3629 18 2191 87 3398 9 3648 114 2247 65 4454 155 2377 61 3417 72 3578 24 2171 23 2222 28 3033 54 2286 101 2050 7 3390 118 1927
4827 12.853799079068118 -8.4718224054007276 24.366767388009364 229 247 251 1.2449374830307367 54 4040 55 4279 63 4422 53 4385 52 4474 48 4242 46 4340 45 4424 68 4687 69 4724 70 4642 71 4174 75 4034 77 3651 67 4506 62 4012 41 4401 2 4208 4 4159 1 4423 3 3856 5 4110 6 4036
24238 -13.381767963856698 6.7137630062001401 24.386518006455844 18 27 42 1.9665451940744845 148 3433 152 3981 64 4596 58 4144 12 3470 57 4284 136 4178 65 4809 151 3687 104 3544 158 4002 154 4381
10954 -10.477867450725476 2.8596617426622366 22.620248847441005 98 105 110 1.0259907699392374 56 4021 58 3824 68 3818 54 3317 73 3435 76 3525 77 2917 28 4706 34 4581 19 4014 70 4591 15 3625 27 4414 18 3919 63 4344 67 4177 62 3683 61 3851 23 4277 35 3543
37221 -0.56298805826379528 0.25637403842356471 -0.69656461880632181 44 49 69 1.2322035114680321 43 4605 128 4011
4830 15.603687285203835 -8.9364739265921145 25.437391389087349 221 240 253 0.78422912839539805 55 4290 57 4325 58 4197 63 4429 53 4403 64 4639 51 4756 50 4735 49 4622 48 4027 47 4144 45 4441 44 4640 68 4699 69 4733 70 4652 71 4181 65 4833 43 4825 42 4888
4834 -0.54588384819726909 -0.9450821848580182 3.6705757543095885 94 104 116 2.0976756981791684 141 3879 53 4431 50 4747 51 5060 136 4228
11262 5.851252074057852 -7.008501512164873 23.866020329680282 175 196 215 1.4543511597164358 55 4040 69 4461 71 3540 75 3589 74 3444 73 3483 76 3259 30 4175 31 4288
37228 1.6471217788801225 3.528993218617646 22.019604451648032 131 132 134 1.5160289271296914 166 4416 101 4123 117 4414
4835 3.7805927864064968 -2.8683451611756956 10.639226779228114 59 63 90 1.5369319236669208 60 4261 146 3598 53 4438 148 3687 152 4251 140 3937 52 4525 54 4090 139 3862 138 3991 51 4786 50 4763 137 4363 136 4248 49 4652 135 3824 48 4065 47 4173 46 4050 134 3797 133 3701 132 3764 44 4404 157 4338 158 4317 159 4104 156 4459 65 4863 66 5364 154 4696 153 4518 155 4283 62 4255 149 3915 150 3576 43 4583 42 4636 126 3622 125 3546 41 4180 124 3711 40 3735 121 3626 128 3681 127 3705
4850 11.880147842481238 -8.651324354403183 23.937313835996527 223 242 255 0.83264228760652359 54 4261 55 4481 63 4634 53 4615 64 4608 52 4695 51 5011 49 4833 48 4226 47 4365 46 4543 45 4642 44 4822 69 4706 66 5054 62 4204 61 4393 43 5001 42 5050 41 4575 40 4113 2 4405 3 4061 1 4632 4 4362
30816 -1.2907214200963486 0.72280122653810697 -1.851966322080663 35 48 57 1.4736676761867968 87 3653 85 3846 4 4218 5 4158 86 3882 3 3905 80 6002 2 4277 78 6519
4851 10.498830645580993 -8.4043119051658071 24.329852385363001 232 251 255 0.62245758984590571 63 4638 64 4854 53 4616 52 4697 51 5012 50 4944 47 4369 46 4545 45 4641 68 4871 69 4916 74 3670 67 4689 66 5314 65 5055 62 4382 61 4398 43 5002 42 5052 41 4576 40 4112
4550 0.20958073197708696 -0.30136146900675748 1.8044013767741014 35 35 35 1.349359756234624 142 3852 141 3317 140 1563
30817 -0.87199322433862225 0.9815247896974153 -2.9667516901672468 60 70 62 1.8447134551738855 87 3538 86 3892 84 4217
37554 -0.73825237162997348 -0.20081851432516898 0.72603636769062685 125 134 151 0.83580081260109829 130 3435 42 4155 125 294 126 2553 41 3074 124 294 121 325
11287 -9.7571096872354524 2.0941093911170392 22.617424279815928 55 63 65 1.3963166214937728 59 4175 148 3386 69 4650
37253 1.1075262473074878 -2.026083880775734 7.828843023460105 0 0 0 2.3058503510349859 145 420 163 155
4860 3.6837089426695213 -2.8723552874244702 10.57524890316768 230 231 234 0.44365580162377344 58 4465 53 4670 57 4579 52 4748 51 5069 50 4986
37557 -0.6511212200771308 -0.31659200196698672 1.2429441788722266 163 171 190 0.66861717002850862 43 4561 127 3680 42 4170 44 4643
4863 0.19519277487722464 -0.38134079180431413 2.1048969385683796 170 170 170 1.5405601777605917 54 4613 53 4734 141 4163 140 4169
11302 -0.53595684731242221 -2.8065712576066102 10.647061750727485 253 254 253 1.9921572066528122 68 4889 72 3921 73 3514 69 4750 71 4197
4875 12.974543363793567 -8.462114188485371 24.314565459018496 229 242 251 0.82192030093248358 54 4438 63 4832 53 4808 52 4914 50 5114 49 4993 48 4434 47 4550 70 5040 77 4011 76 4142 67 4864 62 4392
4884 12.512503056124276 -7.5466304120397538 24.176036109134238 233 243 254 0.98807078593184472 54 4571 55 4810 63 4968 53 4961 49 5149 48 4443 45 4933 68 5188 69 5236 70 5178 71 4621 67 4986 66 5688 62 4525
4583 -5.4487568464011567 3.306953234403891 22.550295109906465 99 104 102 2.31674505865527 144 4339 145 3918 137 4507 141 3966
4893 14.141504534674775 -9.0365758241769978 24.952898228048699 137 184 236 1.1575464296544302 63 5047 53 5048 50 5321 76 4261 43 5252 42 5315
11323 -0.038578666296678187 -2.491586445173156 9.849833138372599 121 125 137 1.6460294179722477 59 4258 69 4957 60 4464 147 3845 152 4452 70 5075 157 4527 163 3299 165 4032
37289 -10.216257965205743 3.5697310055624856 22.757452484023741 73 104 132 1.5817045830938679 156 2355 127 2290 126 3146
4896 -0.051509217758400588 -0.70939140572967851 2.9709161715690451 113 122 132 0.32490284877101144 54 4672 53 5066 52 5053
37591 -0.67501542879685428 -0.27041329713876799 1.2037688462975527 139 148 165 0.87058383124677952 43 4836 127 3958 42 4906 44 4852 125 3802
11324 4.4980673116104235 -2.8167628115442676 10.942021831044897 199 207 227 0.97886386681325177 68 4939 70 4914 71 4228 69 4979
4897 -0.00669764750951747 -0.62463145631600936 3.0188590214293223 53 59 71 0.6227493697591282 54 4738 53 5084 52 5067 51 5100
30863 -0.85327066723033462 -6.6810270932087361 22.641534083114266 190 201 207 1.7702837298201874 107 4401 151 4238 149 4226 86 4375 106 4126
37599 12.061739201688866 -7.1827898814525764 24.659963007664551 147 171 196 0.11430593829796759 50 4989 42 5090
11332 0.2121227135912051 -1.3358136544620647 5.7966495039340371 126 129 108 0.21674699026304398 68 4971 69 5006 157 4586
4906 -0.06119150196495813 -0.57648565003529917 2.8459445811211084 53 57 68 1.7081843208576142 54 4784 56 5225 53 5175
30872 -0.8317566464538545 0.50422773866681603 -1.6594134818500093 127 130 137 1.5201817547761347 87 4016 86 4429 85 4343 84 4941 4 4788 5 4704 6 4701 88 4017 83 4075 7 4002 8 3982 2 4713 3 4394 1 4859 82 4423
30873 -1.2159078763902553 0.54162975743516684 -1.6499838077545435 59 61 73 1.8210098253368605 87 3971 86 4435 6 4702 88 3988
4910 0.74312190374547793 -2.2477962818502526 9.2535777926642595 81 82 94 2.1481001192056266 55 5049 57 5083 58 4982 59 4681 60 4898 145 4503 147 4290 53 5206 63 5234 141 4359 142 4408 144 4965 64 5482 140 4622 52 5309 137 5082 68 5470 69 5533 70 5448 67 5269 66 5971 62 4784 65 5709 61 4920
11340 -6.6643047076846775 2.4647214143436362 22.403624771284971 113 119 117 1.4077176584872679 59 4337 64 5025 69 5058 72 4204 30 5308 14 4043 12 3744 9 3810 8 3635 21 4458 61 4670 3 4025
4913 0.23293163880830867 -0.91855447578448246 4.4412778713375118 195 194 192 1.8643913489257695 55 5085 53 5231 52 5325 51 5635
4915 0.037774172967369145 -1.337574632747986 4.8073142858344502 187 195 207 1.5759696521199114 60 3566 148 3158 57 2821 56 230 53 228 60 4215 59 3785 148 3445 58 4187 57 4312 56 4089 143 3799 55 3667 142 3132 54 3453 141 2506 140 2616 139 221 139 3589 138 2600 51 246 48 200 47 207 46 305 130 282 147 3810 62 4016 61 4410 149 3472 150 3547 129 2648 43 3268 124 287 146 3556 150 3719
4916 0.43163969099047073 -2.2126955676026481 8.7233002922803546 135 151 174 0.98815717929318692 152 4453 54 4084 53 4432 59 4084 60 4466 63 4876 147 3848 58 4230 64 4906 57 4575 145 3797 56 4428 143 3847 63 4668 55 4308 142 3737 139 3854 74 4152 168 4480 169 4344 170 4844 171 4491 172 4745 65 5100 153 4723 62 4251 61 4442 150 3574 151 3923 164 3583
30882 -1.1064964264385699 0.56269791395612023 -1.6729720977816489 138 152 163 1.3211382898912785 87 4023 85 4506 4 4952 5 4814 6 4751
4917 17.781596804197665 -10.267098367271242 27.457136395061454 116 136 162 1.1928297241131922 63 4424 53 4392 55 4285 57 4317 58 4189 54 4046 64 4626 50 4727 51 4748 49 4607 48 4022 68 4690 69 4727 70 4347 66 5319 65 4826
30883 -1.106101609189563 0.56370823718659024 -1.6735047304104089 138 152 163 1.5345944078920315 87 4024 85 4507 4 4953
4919 -12.380086780973386 2.7566054853833974 26.399897487882544 157 157 165 1.3956265055583854 53 2318 51 2281 50 2454 47 3248 46 2179 45 2218 52 2336 44 2378
37616 -8.6603267816197409 3.1334076067553895 23.370246316119538 61 67 67 1.4278767856437684 17 4317 8 3648 41 4802 23 4809
11349 -0.17075867403856662 -2.6024544479847775 9.926816071639804 110 117 134 1.1255943980114735 64 5088 69 5106 70 5050 152 4601 157 4688 158 4676 160 4152 75 4317 166 4255 167 3925 66 5541 154 5047 153 4884 62 4417 150 3903 151 4065
4922 1.5352046209912249 -0.97360902005561589 3.6241024078329871 0 0 0 0.8353505469175283 54 3866 55 4094
11359 0.072299949537578928 -1.303577603634724 5.2838602798099297 108 122 133 0.79965313650816727 68 5101 69 5153 157 4720 67 4767 66 5386 155 4522
11058 14.683487379315837 -8.630996297410114 24.565551723478265 218 244 253 1.5812415645439784 49 304 68 3010 69 194 58 216
4933 -0.54228535065792127 -0.93110149760481564 3.6964027018271715 113 120 136 2.1722550133846128 142 564 143 588 140 515
11361 0.091524206889315313 -1.3012301533471262 5.4445051294991229 131 145 150 1.969467582390545 68 5112 69 5158 158 4579 70 5120 64 4466
37327 -0.77457112360205194 0.025452503439228943 0.57408460152957685 94 102 113 1.1794977064247163 43 3590 45 4284 127 3408 42 1283 126 2747 124 709
4934 -0.72843017296107304 -0.94307793474473056 3.7281287794245808 110 114 125 1.5673544316218293 57 3028 140 589
